# .PCD v0.7 - Point Cloud Data file format
VERSION 0.7
FIELDS x y z
SIZE 4 4 4
TYPE F F F
COUNT 1 1 1
WIDTH 1653
HEIGHT 1
VIEWPOINT 0 0 0 1 0 0 0
POINTS 1653
DATA ascii
-0.195788 0.068583 0.021578
-0.196267 0.054069 -0.006760
-0.196706 0.044992 0.002686
-0.195988 0.051236 0.049747
-0.197142 0.032282 0.038213
-0.196156 0.057471 0.004491
-0.196091 0.028460 0.024026
-0.195740 0.065137 0.010985
-0.196259 0.043881 0.040371
-0.196830 0.039406 0.017106
-0.196335 0.050186 0.032656
-0.195926 0.067307 0.000104
-0.195872 0.071335 0.040302
-0.196012 0.078420 0.022839
-0.196702 0.032363 0.008158
-0.196285 0.075834 0.032343
-0.196401 0.058886 0.018581
-0.195202 0.074241 0.052028
-0.057951 -0.162131 0.009669
-0.096299 -0.161195 0.043470
-0.075366 -0.162188 0.027588
-0.128034 -0.161420 0.011993
-0.107691 -0.161178 -0.000518
-0.070590 -0.162233 0.013864
-0.118470 -0.162301 0.024433
-0.064832 -0.161907 -0.017039
-0.085437 -0.162363 0.056837
-0.081445 -0.162109 0.003367
-0.104339 -0.162007 0.052264
-0.101582 -0.161859 0.019465
-0.116141 -0.161890 0.039929
-0.090635 -0.161901 0.030403
-0.096114 -0.161654 0.006491
-0.088261 -0.161939 -0.022227
-0.051906 -0.161990 -0.004181
-0.055695 -0.162339 0.045067
-0.065773 -0.162341 0.036473
-0.092564 -0.161796 -0.006350
-0.085856 -0.162446 0.016767
-0.078013 -0.161715 -0.011132
-0.104653 -0.162113 0.031890
-0.067929 -0.161595 -0.001088
-0.059808 -0.161718 0.023347
-0.120685 -0.161763 -0.004111
-0.080914 -0.162057 0.040813
-0.112867 -0.161648 0.011201
-0.105702 -0.162139 -0.016454
-0.047017 -0.161722 0.029858
-0.044073 -0.161934 0.014955
-0.070285 -0.161896 0.050708
-0.119111 -0.161895 -0.056080
-0.152299 -0.161759 -0.021893
-0.133960 -0.161934 -0.037336
-0.176983 -0.161573 -0.054246
-0.161552 -0.161453 -0.064562
-0.130117 -0.162075 -0.051409
-0.169980 -0.162453 -0.037885
-0.125605 -0.162144 -0.081879
-0.142612 -0.162398 -0.008266
-0.139919 -0.162082 -0.061605
-0.157428 -0.162304 -0.009452
-0.156050 -0.162246 -0.045050
-0.167339 -0.161813 -0.023212
-0.146209 -0.161751 -0.033839
-0.151439 -0.161941 -0.057469
-0.144925 -0.162132 -0.087924
-0.114304 -0.162083 -0.069376
-0.117903 -0.162312 -0.016789
-0.125569 -0.162085 -0.028590
-0.149318 -0.161979 -0.071358
-0.142407 -0.162654 -0.047123
-0.137209 -0.162037 -0.075832
-0.157281 -0.162039 -0.033480
-0.129023 -0.161968 -0.065345
-0.121067 -0.162207 -0.041880
-0.171503 -0.162340 -0.070695
-0.139355 -0.161963 -0.023445
-0.167034 -0.161984 -0.051582
-0.159486 -0.162541 -0.081764
-0.110304 -0.161915 -0.032052
-0.107389 -0.162091 -0.048717
-0.129604 -0.161969 -0.014796
0.033334 -0.162221 0.066401
-0.007086 -0.161007 0.100407
0.014665 -0.162300 0.084631
-0.039792 -0.161328 0.068235
-0.018769 -0.161342 0.056046
0.019277 -0.162035 0.070221
-0.029667 -0.162047 0.081295
0.025905 -0.162075 0.039380
0.004542 -0.162297 0.114529
0.008141 -0.161951 0.059550
-0.014800 -0.161946 0.109924
-0.012611 -0.162141 0.075701
-0.027192 -0.162124 0.096845
-0.000737 -0.161744 0.086964
-0.006576 -0.161885 0.062848
0.001392 -0.161834 0.034498
0.039487 -0.161872 0.052161
0.034880 -0.162360 0.102844
0.025566 -0.162209 0.093806
-0.003119 -0.161805 0.049585
0.003757 -0.162088 0.073090
0.011917 -0.161792 0.045491
-0.015444 -0.162008 0.088797
0.022777 -0.161583 0.055063
0.030828 -0.161933 0.079684
-0.031674 -0.161607 0.052175
0.008593 -0.162276 0.097377
-0.024277 -0.161629 0.068094
-0.016313 -0.161962 0.039793
0.044838 -0.161371 0.086646
0.047966 -0.161848 0.071772
0.019829 -0.162327 0.107980
0.117549 -0.162273 0.112490
0.077843 -0.161406 0.145913
0.099031 -0.162155 0.130987
0.046729 -0.161396 0.113945
0.066464 -0.161793 0.102984
0.103498 -0.162156 0.116098
0.056392 -0.162138 0.128832
0.109887 -0.162500 0.085649
0.089370 -0.162290 0.159297
0.092635 -0.162051 0.105991
0.071988 -0.162259 0.157610
0.071948 -0.162187 0.122200
0.059339 -0.162002 0.144187
0.084698 -0.161732 0.133726
0.078312 -0.162182 0.109833
0.086545 -0.162289 0.080459
0.123768 -0.162480 0.098598
0.118407 -0.162257 0.150089
0.110160 -0.162825 0.138955
0.080829 -0.162299 0.096474
0.088424 -0.162196 0.119716
0.096063 -0.162521 0.092189
0.071038 -0.162196 0.134874
0.106422 -0.161832 0.102037
0.114296 -0.162051 0.125414
0.054711 -0.162162 0.099132
0.092648 -0.162187 0.144186
0.059890 -0.162124 0.115914
0.069230 -0.162351 0.086379
0.128533 -0.161954 0.134144
0.131396 -0.162411 0.119064
0.104356 -0.162400 0.153181
-0.163230 0.180095 0.052685
-0.191340 0.180363 0.077026
-0.179047 0.180394 0.065233
-0.196879 0.176532 0.054538
-0.194153 0.180590 0.048036
-0.174441 0.181077 0.055324
-0.195762 0.177986 0.072739
-0.169117 0.180030 0.031166
-0.182247 0.180095 0.086462
-0.183248 0.180140 0.049409
-0.188320 0.179995 0.095347
-0.194904 0.180046 0.058273
-0.196112 0.178595 0.081918
-0.184216 0.180103 0.072700
-0.189569 0.180340 0.055003
-0.183591 0.180396 0.026272
-0.159816 0.179160 0.040147
-0.170410 0.179514 0.091928
-0.165384 0.179174 0.072632
-0.188869 0.180358 0.039664
-0.186176 0.180752 0.062143
-0.178544 0.180192 0.039284
-0.192317 0.180204 0.066816
-0.172119 0.179969 0.045546
-0.169208 0.179994 0.063704
-0.196562 0.178038 0.041964
-0.188962 0.180493 0.085150
-0.196570 0.177244 0.064214
-0.193866 0.180128 0.032078
-0.160727 0.179800 0.082420
-0.155736 0.179080 0.061996
-0.174504 0.179949 0.076727
0.190232 -0.053456 0.238014
0.191190 -0.056599 0.271486
0.189677 -0.096255 0.248820
0.190698 -0.085803 0.253827
0.190695 -0.066733 0.234649
0.191153 -0.050190 0.254912
0.190339 -0.107544 0.257114
0.190466 -0.061640 0.219703
0.189375 -0.107388 0.284503
0.189675 -0.095194 0.235155
0.189635 -0.082294 0.292150
0.190261 -0.076884 0.259969
0.190311 -0.079226 0.277802
0.189918 -0.086523 0.268528
0.190545 -0.074221 0.246708
0.190092 -0.089422 0.211741
0.188976 -0.101488 0.223745
0.189861 -0.091447 0.282117
0.188938 -0.115548 0.267547
0.189873 -0.086642 0.225428
0.189724 -0.119048 0.249649
0.190663 -0.078404 0.232489
0.189876 -0.101229 0.270140
0.189281 -0.106272 0.240924
0.189631 -0.094580 0.260720
0.190283 -0.075317 0.219085
0.190122 -0.070381 0.271611
0.191498 -0.062102 0.248424
0.188945 -0.114181 0.229391
0.190105 -0.065848 0.259737
0.189964 -0.085244 0.243384
0.190738 -0.067192 0.285119
-0.049413 -0.001584 0.081265
-0.077571 0.024961 0.121848
-0.065989 -0.020268 0.097879
-0.088427 -0.010043 0.091780
-0.082142 0.007474 0.076784
-0.074925 0.041909 0.090035
-0.087146 -0.030293 0.097041
-0.067820 0.012227 0.063894
-0.064501 -0.030105 0.124593
-0.079195 -0.021293 0.079865
-0.075212 -0.012566 0.141695
-0.080942 -0.008649 0.095295
-0.081523 -0.003040 0.120547
-0.073641 -0.010419 0.114034
-0.071736 0.002599 0.096006
-0.062732 -0.022543 0.047517
-0.029828 -0.018003 0.065096
-0.038103 -0.014894 0.126041
-0.039351 -0.031465 0.107247
-0.074134 -0.008783 0.056250
-0.072171 -0.041468 0.093402
-0.068202 -0.008913 0.082348
-0.079314 -0.023011 0.115247
-0.059583 -0.030784 0.076503
-0.050959 -0.016945 0.092809
-0.086688 -0.009340 0.069150
-0.060089 -0.006696 0.112086
-0.086828 0.019258 0.099212
-0.077918 -0.033573 0.059875
-0.043883 0.014008 0.105933
-0.006475 -0.012965 0.099470
-0.065734 0.001470 0.133487
-0.196333 0.106914 0.000191
-0.196283 0.104499 0.022322
-0.196603 0.074965 0.006902
-0.195853 0.083477 0.010860
-0.196264 0.096798 -0.001910
-0.196280 0.108378 0.011512
-0.196060 0.067676 0.012550
-0.195835 0.101463 -0.010660
-0.196652 0.067758 0.029573
-0.196430 0.075305 -0.002021
-0.196155 0.085006 0.035465
-0.196478 0.089516 0.015824
-0.196048 0.087755 0.026030
-0.196398 0.081518 0.020830
-0.196210 0.090851 0.006498
-0.196413 0.080729 -0.016295
-0.196451 0.071207 -0.009851
-0.196719 0.077817 0.029082
-0.197005 0.061804 0.019734
-0.196529 0.081688 -0.007422
-0.196501 0.059572 0.007694
-0.196000 0.088648 -0.002699
-0.196691 0.071632 0.021478
-0.197094 0.068162 0.002830
-0.196539 0.076535 0.014903
-0.196370 0.090959 -0.011966
-0.196443 0.094903 0.022129
-0.196343 0.099838 0.006327
-0.196699 0.062569 -0.004391
-0.196743 0.097571 0.014261
-0.196684 0.083054 0.002948
-0.195858 0.096014 0.032018
-0.196375 -0.022905 -0.057424
-0.196172 -0.025982 -0.037343
-0.196661 -0.055635 -0.051418
-0.196018 -0.047592 -0.047413
-0.196334 -0.033556 -0.059578
-0.196374 -0.022022 -0.047077
-0.196229 -0.064369 -0.046320
-0.195996 -0.028640 -0.067137
-0.197030 -0.064336 -0.030969
-0.196568 -0.056202 -0.059937
-0.196463 -0.045661 -0.025402
-0.196721 -0.040533 -0.043254
-0.196270 -0.042485 -0.033760
-0.196594 -0.048980 -0.038557
-0.196298 -0.039286 -0.051538
-0.196551 -0.050101 -0.072354
-0.196747 -0.060246 -0.067119
-0.197112 -0.053586 -0.031538
-0.197285 -0.070804 -0.039798
-0.196689 -0.048759 -0.064274
-0.196682 -0.073237 -0.050993
-0.196140 -0.041387 -0.060344
-0.196878 -0.060248 -0.038376
-0.197164 -0.063512 -0.055033
-0.196718 -0.054779 -0.043807
-0.196605 -0.039633 -0.068764
-0.196562 -0.035059 -0.037498
-0.196408 -0.030415 -0.052432
-0.196797 -0.069823 -0.061470
-0.196572 -0.032377 -0.044887
-0.196688 -0.047811 -0.055379
-0.196015 -0.034128 -0.028014
-0.116682 0.161895 0.068723
-0.142062 0.180069 0.104954
-0.126499 0.174907 0.091351
-0.162211 0.181085 0.068264
-0.146547 0.180703 0.060286
-0.121930 0.172031 0.073964
-0.150808 0.181822 0.096970
-0.119316 0.168912 0.033330
-0.129292 0.176124 0.119954
-0.130287 0.177151 0.061533
-0.137210 0.179497 0.133084
-0.151727 0.181273 0.078714
-0.156690 0.180120 0.110142
-0.132408 0.177161 0.101541
-0.138592 0.179163 0.071260
-0.131852 0.177974 0.020515
-0.113306 0.156032 0.048804
-0.121745 0.171894 0.129546
-0.115198 0.159985 0.100360
-0.139258 0.180141 0.049086
-0.126954 0.176763 0.078839
-0.127415 0.175335 0.043657
-0.140599 0.180106 0.085085
-0.121043 0.168995 0.055245
-0.118895 0.166708 0.089149
-0.158846 0.181455 0.046820
-0.140759 0.180087 0.119006
-0.163588 0.179891 0.089978
-0.144177 0.181022 0.031860
-0.115004 0.162153 0.115444
-0.110281 0.153775 0.081501
-0.123045 0.171967 0.105509
-0.196239 -0.102397 -0.099327
-0.196268 -0.105346 -0.077292
-0.196851 -0.134425 -0.092672
-0.196264 -0.125914 -0.088852
-0.196366 -0.112541 -0.101768
-0.196253 -0.101605 -0.087505
-0.196319 -0.142341 -0.086826
-0.195856 -0.108524 -0.110243
-0.197049 -0.142799 -0.070076
-0.196621 -0.134838 -0.101966
-0.196571 -0.124597 -0.063876
-0.196723 -0.119955 -0.083643
-0.196185 -0.122094 -0.073067
-0.196687 -0.127997 -0.078439
-0.196348 -0.118644 -0.093187
-0.196463 -0.128817 -0.116112
-0.196756 -0.138633 -0.109849
-0.197092 -0.132529 -0.070189
-0.197310 -0.148460 -0.079877
-0.196843 -0.128004 -0.107310
-0.196797 -0.150556 -0.092217
-0.196016 -0.120699 -0.102819
-0.197002 -0.138391 -0.078106
-0.197392 -0.142334 -0.097003
-0.196779 -0.133184 -0.084343
-0.196343 -0.118707 -0.111918
-0.196468 -0.114557 -0.077198
-0.196396 -0.109884 -0.093754
-0.196900 -0.147938 -0.104613
-0.196568 -0.112047 -0.085738
-0.196473 -0.126989 -0.097077
-0.196092 -0.113535 -0.067478
-0.097154 0.114875 0.031315
-0.100981 0.118976 0.075224
-0.080743 0.057578 0.046415
-0.088589 0.070891 0.048047
-0.097469 0.101820 0.026469
-0.105380 0.130773 0.049559
-0.080936 0.037483 0.050616
-0.096348 0.114092 0.008165
-0.073056 0.039321 0.086502
-0.082890 0.055504 0.030504
-0.083425 0.073929 0.096366
-0.089973 0.086642 0.056130
-0.091669 0.084439 0.078902
-0.084892 0.070929 0.067740
-0.091500 0.094841 0.043555
-0.078418 0.057715 -0.002225
-0.073058 0.051023 0.019307
-0.076333 0.063587 0.082284
-0.065906 0.028150 0.067929
-0.083295 0.071846 0.010451
-0.071816 0.023559 0.044937
-0.089041 0.083841 0.030605
-0.081288 0.046832 0.074577
-0.072926 0.039729 0.035508
-0.074059 0.050324 0.058644
-0.092601 0.084287 0.015743
-0.087592 0.093274 0.069215
-0.102863 0.107464 0.048918
-0.075921 0.029366 0.016473
-0.091872 0.112297 0.059749
-0.076201 0.074521 0.039288
-0.091190 0.102129 0.089446
-0.194148 -0.142910 -0.111378
-0.197037 -0.142297 -0.088451
-0.195125 -0.160611 -0.102999
-0.196536 -0.155680 -0.106979
-0.196388 -0.146981 -0.117376
-0.195958 -0.137793 -0.102612
-0.195430 -0.160674 -0.097321
-0.195666 -0.145310 -0.127503
-0.193828 -0.161091 -0.077243
-0.196221 -0.160093 -0.115634
-0.196430 -0.157825 -0.071436
-0.197157 -0.153665 -0.100038
-0.196298 -0.155357 -0.083467
-0.196406 -0.157281 -0.093366
-0.196214 -0.151429 -0.109488
-0.195191 -0.161020 -0.137515
-0.186354 -0.163300 -0.122230
-0.189320 -0.162331 -0.082651
-0.183346 -0.162642 -0.094686
-0.196185 -0.159832 -0.125939
-0.193311 -0.161197 -0.110491
-0.195568 -0.155235 -0.118161
-0.194917 -0.161084 -0.089053
-0.190035 -0.161208 -0.116473
-0.190834 -0.162311 -0.101137
-0.196270 -0.152825 -0.126234
-0.196314 -0.152133 -0.088916
-0.196937 -0.146159 -0.102406
-0.194370 -0.161407 -0.130488
-0.194596 -0.146054 -0.095022
-0.182269 -0.162917 -0.107998
-0.196287 -0.149551 -0.078740
-0.196285 0.165498 0.017925
-0.196291 0.163225 0.040339
-0.196535 0.132703 0.024844
-0.195837 0.141449 0.028854
-0.196125 0.155834 0.015879
-0.196299 0.166792 0.029394
-0.195933 0.124825 0.030556
-0.195830 0.160434 0.007276
-0.196627 0.124781 0.047586
-0.196357 0.132746 0.015839
-0.196170 0.143404 0.053498
-0.196492 0.148160 0.033622
-0.196102 0.146367 0.044057
-0.196478 0.139645 0.038794
-0.196243 0.149498 0.024421
-0.196268 0.138842 0.001791
-0.196461 0.128635 0.007966
-0.196666 0.135497 0.047100
-0.197022 0.118565 0.037764
-0.196450 0.139968 0.010762
-0.196420 0.116440 0.025703
-0.196032 0.147159 0.015364
-0.196516 0.128695 0.039399
-0.196982 0.125257 0.020723
-0.196507 0.133966 0.032739
-0.196271 0.149512 0.006018
-0.196358 0.153429 0.039977
-0.196336 0.158746 0.024069
-0.196565 0.119487 0.013820
-0.196848 0.156414 0.032226
-0.196579 0.141171 0.020751
-0.195887 0.154867 0.049985
0.059218 -0.026067 0.124694
0.006040 -0.004879 0.180280
0.026403 -0.033545 0.144676
-0.047055 -0.028883 0.135507
-0.009257 -0.018886 0.116043
0.026025 0.012304 0.135209
-0.033498 -0.037968 0.150234
0.037141 -0.018087 0.094884
0.019787 -0.036843 0.189489
0.003666 -0.035440 0.122337
-0.002774 -0.028456 0.201182
-0.013328 -0.032010 0.141388
-0.031963 -0.028734 0.178141
0.009527 -0.027893 0.163468
0.008403 -0.020128 0.140327
0.026078 -0.034693 0.078753
0.066814 -0.033666 0.099236
0.059772 -0.031095 0.184010
0.048963 -0.039121 0.162358
0.004979 -0.026954 0.093490
0.006421 -0.051949 0.146819
0.022825 -0.025723 0.117201
-0.011647 -0.035235 0.168128
0.037333 -0.040156 0.118229
0.046160 -0.031462 0.137726
-0.032599 -0.030679 0.110406
0.030191 -0.027636 0.169206
-0.027208 -0.009543 0.144861
-0.010397 -0.038193 0.090580
0.061641 -0.016866 0.159125
0.080668 -0.031430 0.143719
0.035845 -0.024155 0.197369
0.162496 0.003640 0.181586
0.108538 0.014113 0.240824
0.125317 -0.017343 0.206173
0.056729 -0.007030 0.198961
0.093534 0.011558 0.175373
0.136551 0.022512 0.195561
0.071701 -0.035975 0.202826
0.144260 0.009989 0.149621
0.122389 -0.030944 0.240844
0.104287 -0.023132 0.182314
0.099637 -0.005167 0.262630
0.090267 -0.008337 0.199124
0.074683 -0.001474 0.239267
0.109989 -0.004437 0.224117
0.111796 0.007074 0.200905
0.127815 -0.021661 0.135556
0.169179 -0.017106 0.161535
0.160228 -0.009250 0.241355
0.151508 -0.040988 0.217508
0.105205 0.000397 0.149462
0.108991 -0.055560 0.202208
0.127172 -0.002742 0.178198
0.090068 -0.024289 0.225415
0.135979 -0.036997 0.177765
0.150570 -0.017709 0.198307
0.071811 -0.008187 0.170056
0.137981 -0.000015 0.223080
0.074631 0.013464 0.213043
0.096502 -0.041624 0.154651
0.164996 0.010321 0.220606
0.179128 -0.006428 0.203874
0.137079 0.004308 0.256605
-0.196259 0.061024 -0.031358
-0.196261 0.058437 -0.010438
-0.196570 0.029978 -0.025126
-0.195900 0.037989 -0.021189
-0.196324 0.050993 -0.033484
-0.196241 0.062209 -0.020800
-0.196027 0.022542 -0.019570
-0.195920 0.055710 -0.041430
-0.196580 0.022475 -0.003680
-0.196409 0.030080 -0.033602
-0.196100 0.039506 0.001815
-0.196540 0.044142 -0.016610
-0.196077 0.042237 -0.006824
-0.196407 0.036376 -0.011897
-0.196237 0.045408 -0.025420
-0.196434 0.035569 -0.046521
-0.196541 0.026139 -0.040976
-0.196766 0.032384 -0.004224
-0.196946 0.016650 -0.012869
-0.196533 0.036671 -0.038424
-0.196516 0.014332 -0.024267
-0.195943 0.043321 -0.034144
-0.196735 0.026513 -0.011146
-0.197024 0.023094 -0.028783
-0.196511 0.031216 -0.017388
-0.196417 0.045339 -0.042858
-0.196455 0.049261 -0.010533
-0.196417 0.054060 -0.025674
-0.196611 0.017567 -0.035367
-0.196658 0.051912 -0.018194
-0.196672 0.037782 -0.028827
-0.195883 0.050259 -0.001228
-0.154422 -0.162153 -0.105569
-0.183614 -0.161771 -0.075551
-0.167606 -0.161919 -0.089676
-0.192299 -0.160115 -0.104041
-0.188707 -0.161806 -0.114269
-0.165755 -0.162867 -0.101980
-0.191549 -0.161601 -0.085314
-0.159173 -0.162113 -0.129780
-0.174803 -0.162558 -0.061885
-0.173571 -0.162532 -0.111160
-0.186045 -0.162496 -0.059222
-0.184149 -0.162613 -0.095180
-0.190503 -0.161723 -0.072863
-0.177049 -0.162625 -0.084735
-0.182661 -0.162461 -0.106171
-0.176681 -0.162667 -0.136178
-0.150621 -0.162634 -0.118857
-0.155480 -0.162584 -0.067857
-0.161205 -0.161839 -0.080526
-0.180991 -0.162985 -0.120063
-0.174912 -0.162788 -0.097834
-0.169277 -0.162649 -0.123612
-0.184695 -0.162786 -0.086481
-0.163033 -0.162337 -0.114031
-0.157606 -0.162103 -0.092994
-0.192008 -0.161607 -0.122060
-0.175148 -0.162224 -0.074765
-0.190234 -0.159981 -0.096694
-0.185213 -0.162374 -0.130242
-0.148555 -0.161502 -0.080321
-0.143674 -0.161793 -0.098092
-0.164426 -0.162926 -0.069814
0.120233 -0.026675 0.133057
0.066997 -0.012508 0.197532
0.083143 -0.051214 0.162175
0.000026 -0.038113 0.151153
0.049563 -0.018502 0.130427
0.091216 -0.006101 0.148238
0.010749 -0.074656 0.153931
0.097490 -0.019860 0.105583
0.080730 -0.066377 0.209017
0.056538 -0.057556 0.131535
0.054829 -0.038340 0.229517
0.045764 -0.041643 0.155307
0.025276 -0.033862 0.194125
0.064309 -0.035861 0.182059
0.068815 -0.020193 0.156825
0.087477 -0.054747 0.084973
0.135293 -0.051036 0.107554
0.125502 -0.044481 0.205322
0.121150 -0.078414 0.174185
0.059174 -0.032057 0.099320
0.062273 -0.097146 0.157016
0.081562 -0.033061 0.132189
0.039832 -0.060812 0.187566
0.096150 -0.071588 0.123866
0.111268 -0.050985 0.149921
0.022141 -0.042365 0.123749
0.098488 -0.029808 0.181024
0.031862 -0.013514 0.159176
0.044275 -0.075662 0.095879
0.122700 -0.015942 0.171123
0.148725 -0.042491 0.157626
0.095834 -0.025778 0.220689
-0.162887 0.180410 0.012593
-0.191651 0.180868 0.035574
-0.179082 0.180907 0.024666
-0.197047 0.177267 0.014035
-0.194408 0.181102 0.007746
-0.174696 0.181461 0.015083
-0.195943 0.178620 0.031530
-0.168741 0.180405 -0.008962
-0.182130 0.180751 0.044241
-0.183418 0.180688 0.009044
-0.188663 0.180665 0.052102
-0.195309 0.180735 0.017722
-0.196318 0.179297 0.040090
-0.184541 0.180676 0.031739
-0.189831 0.180866 0.014685
-0.183776 0.180932 -0.014229
-0.159212 0.179665 0.000105
-0.170536 0.180082 0.049064
-0.165409 0.179864 0.031016
-0.189090 0.180922 -0.000696
-0.186261 0.181524 0.021486
-0.178554 0.180571 -0.001009
-0.192561 0.180887 0.025551
-0.172011 0.180462 0.005326
-0.169347 0.180570 0.022602
-0.196662 0.178766 0.001633
-0.189333 0.181103 0.043013
-0.196824 0.178021 0.023639
-0.194128 0.180789 -0.008579
-0.160618 0.180205 0.040474
-0.155108 0.179701 0.021502
-0.174750 0.180398 0.034628
0.190161 -0.081210 0.179099
0.190760 -0.084265 0.211775
0.189155 -0.123591 0.189201
0.189449 -0.112601 0.194866
0.190344 -0.093397 0.175030
0.191009 -0.078838 0.196013
0.190060 -0.134861 0.197689
0.189878 -0.089955 0.160112
0.189229 -0.134250 0.226008
0.189190 -0.122516 0.175514
0.189208 -0.109641 0.233394
0.189836 -0.103479 0.200797
0.189730 -0.105619 0.218654
0.189388 -0.113479 0.208945
0.190196 -0.101629 0.186715
0.189812 -0.116841 0.151306
0.188803 -0.129179 0.164202
0.189538 -0.118771 0.222885
0.188676 -0.143292 0.208737
0.189480 -0.113994 0.165251
0.189366 -0.146539 0.190449
0.190109 -0.105723 0.172459
0.189607 -0.128598 0.210857
0.188711 -0.134220 0.181485
0.189021 -0.122107 0.201220
0.189558 -0.102489 0.158642
0.189656 -0.096953 0.212062
0.190641 -0.089080 0.188329
0.188364 -0.142274 0.169845
0.189752 -0.093367 0.199817
0.189596 -0.113002 0.183788
0.190365 -0.094550 0.225833
-0.196445 -0.045438 -0.089786
-0.196171 -0.048392 -0.067751
-0.196800 -0.079137 -0.083008
-0.196305 -0.070649 -0.078814
-0.196438 -0.056162 -0.091772
-0.196509 -0.044527 -0.078480
-0.196325 -0.088517 -0.077216
-0.196069 -0.051583 -0.100006
-0.197032 -0.088633 -0.060858
-0.196611 -0.079833 -0.092355
-0.196409 -0.068690 -0.054612
-0.196727 -0.063346 -0.074199
-0.196498 -0.065568 -0.063680
-0.196634 -0.072160 -0.068918
-0.196277 -0.061992 -0.083284
-0.196574 -0.073211 -0.105624
-0.196810 -0.084108 -0.100158
-0.196992 -0.077379 -0.061119
-0.197369 -0.095394 -0.070361
-0.196586 -0.071943 -0.096863
-0.196888 -0.098085 -0.082230
-0.196112 -0.064328 -0.092785
-0.196887 -0.083879 -0.068688
-0.197243 -0.087759 -0.087013
-0.196676 -0.078338 -0.074730
-0.196506 -0.062514 -0.101867
-0.196514 -0.057949 -0.067844
-0.196519 -0.052663 -0.083911
-0.197012 -0.094321 -0.093712
-0.196681 -0.054953 -0.075790
-0.196797 -0.070975 -0.087325
-0.195963 -0.056899 -0.058123
-0.114802 0.157648 0.019613
-0.115963 0.153969 0.062208
-0.097297 0.113226 0.032349
-0.102749 0.128177 0.035784
-0.111100 0.145459 0.012538
-0.117423 0.158489 0.040077
-0.092197 0.100717 0.041167
-0.110701 0.148899 -0.009025
-0.092821 0.100755 0.079647
-0.098110 0.116043 0.014780
-0.102302 0.127826 0.090383
-0.105462 0.135331 0.046376
-0.105613 0.132149 0.070294
-0.101361 0.123291 0.057299
-0.106574 0.138509 0.028533
-0.097791 0.118201 -0.022743
-0.094144 0.108339 0.001192
-0.098009 0.120607 0.076251
-0.089928 0.090795 0.059540
-0.100320 0.123628 -0.002851
-0.087425 0.087012 0.032445
-0.104849 0.133493 0.013558
-0.096290 0.107499 0.062545
-0.091716 0.101252 0.021708
-0.095230 0.114385 0.047819
-0.106688 0.136833 -0.006185
-0.105756 0.141154 0.060034
-0.114564 0.148679 0.034570
-0.090459 0.092225 0.002252
-0.109282 0.149017 0.047991
-0.100319 0.128621 0.024668
-0.108981 0.145274 0.079120
-0.196293 0.104123 -0.036651
-0.196229 0.101763 -0.015709
-0.196581 0.074005 -0.030353
-0.195884 0.082066 -0.026671
-0.196249 0.094579 -0.038836
-0.196170 0.105480 -0.025663
-0.196025 0.067314 -0.024977
-0.195800 0.098952 -0.046954
-0.196672 0.067329 -0.009131
-0.196466 0.074400 -0.038884
-0.196178 0.083430 -0.003511
-0.196492 0.087748 -0.021869
-0.195940 0.085997 -0.012147
-0.196405 0.080176 -0.017195
-0.196224 0.089001 -0.030799
-0.196391 0.079464 -0.052475
-0.196487 0.070438 -0.046235
-0.196756 0.076708 -0.009575
-0.197012 0.061747 -0.018316
-0.196560 0.080155 -0.044166
-0.196545 0.059640 -0.029696
-0.196001 0.086947 -0.039564
-0.196745 0.070893 -0.016493
-0.197098 0.067594 -0.034312
-0.196557 0.075476 -0.022823
-0.196302 0.089095 -0.048154
-0.196424 0.092814 -0.015856
-0.196287 0.097482 -0.030915
-0.196692 0.062399 -0.041216
-0.196692 0.095301 -0.023453
-0.196652 0.081557 -0.034249
-0.195843 0.093878 -0.006542
-0.196312 0.022768 -0.071473
-0.196341 0.020123 -0.050195
-0.196704 -0.009354 -0.065091
-0.196097 -0.001098 -0.061000
-0.196371 0.012511 -0.073461
-0.196341 0.023769 -0.060540
-0.196288 -0.016956 -0.059552
-0.195950 0.017255 -0.081557
-0.196729 -0.017096 -0.043449
-0.196557 -0.009329 -0.073762
-0.196271 0.000403 -0.037712
-0.196680 0.005406 -0.056289
-0.196266 0.003260 -0.046443
-0.196513 -0.002778 -0.051645
-0.196337 0.006435 -0.065333
-0.196542 -0.003540 -0.086664
-0.196622 -0.013347 -0.081066
-0.196935 -0.007067 -0.043935
-0.197057 -0.022851 -0.052742
-0.196693 -0.002618 -0.078526
-0.196584 -0.024988 -0.064188
-0.196054 0.004449 -0.074268
-0.196833 -0.013061 -0.050919
-0.197110 -0.016479 -0.068812
-0.196698 -0.008302 -0.057325
-0.196620 0.006582 -0.083187
-0.196503 0.010535 -0.050235
-0.196481 0.015518 -0.065851
-0.196817 -0.021948 -0.075232
-0.196699 0.013299 -0.058190
-0.196766 -0.001745 -0.068907
-0.195967 0.011654 -0.040722
0.190788 -0.131134 0.113688
0.190503 -0.132178 0.155119
0.187668 -0.160517 0.127532
0.179028 -0.161142 0.125534
0.190957 -0.142108 0.104573
0.191171 -0.127340 0.134022
0.177633 -0.163573 0.139482
0.190988 -0.140846 0.083747
0.184558 -0.161808 0.174080
0.186121 -0.160118 0.111561
0.189729 -0.156329 0.183941
0.188924 -0.151679 0.135971
0.184916 -0.158072 0.161358
0.188793 -0.155477 0.145858
0.190883 -0.147014 0.121055
0.189212 -0.158145 0.072478
0.188977 -0.158889 0.097956
0.189340 -0.157599 0.165154
0.187348 -0.161767 0.149402
0.189396 -0.157829 0.088919
0.181027 -0.163037 0.123753
0.190526 -0.152093 0.105422
0.183322 -0.161745 0.153800
0.187713 -0.161392 0.111934
0.189505 -0.159123 0.138110
0.187543 -0.153924 0.093595
0.190050 -0.147663 0.153531
0.189815 -0.139829 0.128097
0.180061 -0.163066 0.089681
0.190054 -0.140184 0.140799
0.189929 -0.153844 0.120662
0.190786 -0.143874 0.170009
-0.097399 0.112519 -0.023667
-0.103304 0.118160 0.018828
-0.082146 0.057664 -0.009518
-0.096775 0.068082 -0.008422
-0.100043 0.101387 -0.028961
-0.106707 0.129599 -0.006929
-0.086402 0.034604 -0.005146
-0.097227 0.111977 -0.044887
-0.075092 0.038047 0.029005
-0.084151 0.053658 -0.024468
-0.084899 0.073275 0.038299
-0.090940 0.084745 -0.001262
-0.097197 0.083067 0.022018
-0.085604 0.069889 0.009802
-0.092716 0.095030 -0.012221
-0.079978 0.056307 -0.054516
-0.074864 0.050100 -0.034513
-0.078590 0.062186 0.023767
-0.068713 0.026654 0.010933
-0.084227 0.070839 -0.042846
-0.074343 0.021240 -0.010122
-0.090220 0.083326 -0.024562
-0.083163 0.046164 0.016905
-0.075474 0.038487 -0.018701
-0.075396 0.047302 0.001806
-0.096385 0.081884 -0.038904
-0.088135 0.091353 0.012439
-0.108377 0.107953 -0.006355
-0.078735 0.026876 -0.037077
-0.093090 0.109505 0.003431
-0.080513 0.073355 -0.016792
-0.092639 0.100224 0.030864
0.021601 -0.021258 0.029148
-0.027478 -0.002113 0.084966
-0.014855 -0.044232 0.054134
-0.078816 -0.034446 0.043988
-0.041161 -0.015089 0.026555
-0.006428 0.007111 0.042346
-0.074281 -0.072264 0.046438
-0.002608 -0.015508 0.003150
-0.017849 -0.062238 0.092530
-0.037933 -0.049211 0.027273
-0.038651 -0.031689 0.112587
-0.044903 -0.033527 0.048137
-0.059153 -0.027745 0.083683
-0.028207 -0.030649 0.073896
-0.023905 -0.014822 0.052806
-0.010237 -0.046039 -0.021682
0.035733 -0.041744 0.001206
0.029159 -0.036179 0.092983
0.025291 -0.078128 0.061795
-0.033573 -0.029087 -0.002496
-0.033622 -0.106748 0.047944
-0.013828 -0.029140 0.028584
-0.050827 -0.053082 0.076110
-0.002328 -0.067582 0.016706
0.011660 -0.042949 0.044613
-0.061467 -0.036112 0.016829
0.003001 -0.026736 0.070443
-0.056492 -0.004180 0.053745
-0.047373 -0.073052 -0.009425
0.026329 -0.006065 0.061181
0.053401 -0.036056 0.049556
-0.002477 -0.019945 0.103972
-0.196382 -0.082142 -0.124126
-0.196154 -0.084902 -0.101063
-0.196770 -0.113890 -0.117085
-0.196189 -0.105543 -0.112863
-0.196276 -0.092354 -0.126146
-0.196370 -0.081527 -0.112347
-0.196082 -0.121620 -0.110772
-0.195952 -0.088165 -0.134967
-0.196815 -0.122284 -0.093899
-0.196615 -0.113930 -0.126651
-0.196337 -0.103970 -0.087213
-0.196607 -0.099137 -0.107916
-0.196410 -0.101809 -0.097006
-0.196637 -0.107172 -0.102735
-0.196202 -0.097950 -0.117799
-0.196524 -0.107928 -0.140532
-0.196762 -0.117890 -0.134533
-0.196877 -0.111878 -0.094026
-0.197102 -0.127948 -0.103741
-0.196649 -0.107124 -0.131906
-0.196666 -0.130048 -0.116547
-0.196070 -0.100226 -0.127150
-0.196712 -0.117443 -0.101924
-0.197079 -0.121347 -0.121272
-0.196673 -0.112564 -0.108653
-0.196299 -0.098331 -0.136490
-0.196420 -0.094280 -0.101133
-0.196403 -0.089272 -0.117866
-0.196771 -0.126795 -0.128508
-0.196838 -0.091297 -0.109830
-0.196795 -0.106269 -0.121498
-0.195976 -0.093074 -0.091510
-0.056502 0.015456 -0.031872
-0.087100 0.040546 0.019397
-0.078492 -0.018977 -0.008793
-0.097351 -0.012280 -0.011089
-0.089138 0.020756 -0.034103
-0.079834 0.055446 -0.018172
-0.095100 -0.049276 -0.005100
-0.075397 0.026832 -0.058687
-0.078153 -0.043606 0.030440
-0.088483 -0.025123 -0.027347
-0.084405 -0.008621 0.046756
-0.086621 0.001239 -0.006956
-0.088979 0.005611 0.021802
-0.080958 -0.004043 0.012435
-0.078204 0.016559 -0.009038
-0.074397 -0.021930 -0.080745
-0.042004 -0.016847 -0.050305
-0.048938 -0.011578 0.026590
-0.049380 -0.060710 0.003304
-0.079959 -0.002619 -0.059897
-0.084598 -0.092172 -0.010938
-0.074578 -0.002437 -0.027559
-0.088112 -0.025972 0.017200
-0.068058 -0.044001 -0.034294
-0.057626 -0.021359 -0.007669
-0.091214 -0.004374 -0.041872
-0.065665 0.005731 0.007443
-0.093399 0.034824 -0.005210
-0.085321 -0.056720 -0.059283
-0.049658 0.032429 -0.000741
-0.024550 -0.006155 -0.009407
-0.074674 0.014960 0.034241
-0.196101 0.179878 -0.013718
-0.196121 0.178643 0.011085
-0.196375 0.155844 -0.006481
-0.195816 0.163749 -0.003903
-0.196232 0.175163 -0.017327
-0.195709 0.179601 -0.001583
-0.195424 0.149592 -0.000035
-0.195669 0.177288 -0.027396
-0.196282 0.149587 0.019838
-0.196269 0.156888 -0.016664
-0.195924 0.164646 0.026783
-0.196263 0.168488 0.001651
-0.195860 0.167270 0.014729
-0.196228 0.162393 0.007758
-0.196106 0.169471 -0.008568
-0.196204 0.162506 -0.033452
-0.196427 0.153279 -0.024826
-0.196299 0.158815 0.018001
-0.196834 0.143962 0.007603
-0.196263 0.162072 -0.024052
-0.195964 0.142096 -0.006150
-0.195773 0.167500 -0.017799
-0.196067 0.153249 0.009742
-0.196945 0.149641 -0.012584
-0.196161 0.157667 0.001692
-0.196291 0.170353 -0.026384
-0.195985 0.172163 0.009534
-0.196195 0.176048 -0.006756
-0.196141 0.144816 -0.020982
-0.196744 0.174542 0.001958
-0.196460 0.162466 -0.011281
-0.195768 0.173438 0.021123
-0.196583 0.141037 -0.032452
-0.196501 0.138370 -0.009383
-0.196786 0.109350 -0.025350
-0.196144 0.118021 -0.021231
-0.196443 0.131238 -0.034553
-0.196585 0.142220 -0.020565
-0.196236 0.102085 -0.019341
-0.196121 0.135609 -0.043660
-0.196871 0.102184 -0.002138
-0.196590 0.109965 -0.034602
-0.196329 0.119643 0.004039
-0.196711 0.124166 -0.016270
-0.196365 0.122178 -0.005440
-0.196699 0.116092 -0.011076
-0.196428 0.125352 -0.026014
-0.196616 0.115513 -0.049418
-0.196722 0.105826 -0.042686
-0.196905 0.112295 -0.002678
-0.197247 0.096265 -0.012055
-0.196715 0.116379 -0.040291
-0.196815 0.094096 -0.024788
-0.196231 0.123154 -0.035300
-0.196823 0.106125 -0.010231
-0.197205 0.102622 -0.029679
-0.196625 0.110965 -0.017294
-0.196504 0.125636 -0.044725
-0.196654 0.129237 -0.009649
-0.196594 0.134130 -0.025950
-0.196964 0.097133 -0.037207
-0.197073 0.131949 -0.017784
-0.196804 0.117604 -0.029547
-0.196020 0.130164 0.000438
0.025237 -0.162172 -0.003578
-0.013285 -0.160908 0.030345
0.007377 -0.161993 0.014451
-0.045776 -0.161251 -0.001551
-0.024787 -0.161043 -0.013902
0.012333 -0.162039 0.000525
-0.036094 -0.161921 0.010914
0.018589 -0.161817 -0.030781
-0.002610 -0.162067 0.043921
0.001201 -0.161909 -0.010212
-0.021353 -0.161804 0.038830
-0.018569 -0.161864 0.005933
-0.032757 -0.161885 0.026311
-0.007881 -0.161782 0.017077
-0.013129 -0.161722 -0.007124
-0.005573 -0.161706 -0.035980
0.031630 -0.161738 -0.017965
0.027410 -0.162356 0.032037
0.017560 -0.162223 0.023211
-0.009974 -0.161697 -0.020102
-0.003108 -0.162064 0.003211
0.004957 -0.161653 -0.024710
-0.022085 -0.161956 0.018944
0.015127 -0.161433 -0.014798
0.023207 -0.161548 0.010058
-0.037951 -0.161430 -0.017548
0.002317 -0.162187 0.027193
-0.029794 -0.161584 -0.002182
-0.022869 -0.161849 -0.030133
0.036737 -0.161569 0.016511
0.040036 -0.161821 0.001624
0.012749 -0.161992 0.037705
-0.196169 -0.120962 -0.148588
-0.196387 -0.123790 -0.126060
-0.196725 -0.148284 -0.141877
-0.195996 -0.140543 -0.138672
-0.196264 -0.129229 -0.151087
-0.195998 -0.121064 -0.137144
-0.195834 -0.153711 -0.135883
-0.196102 -0.126221 -0.159687
-0.196761 -0.154299 -0.118801
-0.196695 -0.147380 -0.151159
-0.196288 -0.140334 -0.112724
-0.196477 -0.136161 -0.133310
-0.196137 -0.138392 -0.122219
-0.196592 -0.142584 -0.128121
-0.196241 -0.135134 -0.143285
-0.196643 -0.143251 -0.164836
-0.196918 -0.150652 -0.157886
-0.196950 -0.146358 -0.119417
-0.197053 -0.157589 -0.129230
-0.196736 -0.142363 -0.156784
-0.196374 -0.158336 -0.142178
-0.196072 -0.136906 -0.151907
-0.196659 -0.150440 -0.126943
-0.197052 -0.153588 -0.146823
-0.196775 -0.146661 -0.134112
-0.196194 -0.134775 -0.160986
-0.196363 -0.132010 -0.126458
-0.196291 -0.127881 -0.142319
-0.196517 -0.156877 -0.154609
-0.196708 -0.129400 -0.134809
-0.196664 -0.141887 -0.145929
-0.196144 -0.130813 -0.117009
-0.196155 0.085923 -0.062368
-0.196238 0.083356 -0.036282
-0.196724 0.049936 -0.054264
-0.196019 0.059217 -0.050214
-0.196475 0.075160 -0.065593
-0.196127 0.087678 -0.049867
-0.196086 0.040764 -0.047506
-0.196227 0.080335 -0.076087
-0.196715 0.040744 -0.027753
-0.196635 0.050332 -0.065130
-0.196268 0.060141 -0.020973
-0.196551 0.066001 -0.044591
-0.196016 0.064224 -0.031398
-0.196338 0.057320 -0.037546
-0.196303 0.068669 -0.055433
-0.196706 0.055394 -0.082374
-0.196844 0.046255 -0.074047
-0.196648 0.052275 -0.028075
-0.197528 0.034248 -0.039428
-0.196589 0.058179 -0.071827
-0.196638 0.031091 -0.053094
-0.196071 0.065706 -0.065876
-0.196647 0.045394 -0.037099
-0.197162 0.041136 -0.059669
-0.196607 0.051400 -0.044758
-0.196375 0.067595 -0.076333
-0.196303 0.071800 -0.036987
-0.196446 0.078236 -0.054241
-0.197090 0.034703 -0.068123
-0.196545 0.075539 -0.045071
-0.196626 0.059435 -0.058859
-0.195761 0.074094 -0.025823
0.101951 -0.162183 0.038013
0.062719 -0.161011 0.071287
0.083515 -0.161994 0.055887
0.031144 -0.161125 0.039866
0.051273 -0.161380 0.028351
0.088176 -0.161958 0.041614
0.040461 -0.161812 0.052902
0.095106 -0.161974 0.011590
0.073951 -0.161877 0.084839
0.077418 -0.161792 0.031456
0.055653 -0.161837 0.080546
0.057363 -0.162070 0.047365
0.043538 -0.161776 0.067824
0.068652 -0.161594 0.058158
0.063172 -0.161845 0.034785
0.071066 -0.161791 0.007046
0.108454 -0.161961 0.023967
0.103341 -0.162231 0.073861
0.094490 -0.162260 0.064393
0.065992 -0.161833 0.021949
0.073211 -0.161963 0.044735
0.081156 -0.161740 0.017727
0.054692 -0.161878 0.060178
0.091520 -0.161575 0.026965
0.099130 -0.161950 0.050784
0.039075 -0.161544 0.024665
0.077911 -0.161966 0.067865
0.045931 -0.161745 0.040105
0.053993 -0.161866 0.012555
0.112924 -0.161476 0.058072
0.116045 -0.162044 0.043592
0.088880 -0.162246 0.078723
-0.046530 -0.162139 -0.064360
-0.086023 -0.161164 -0.029599
-0.064656 -0.162013 -0.045747
-0.118426 -0.161258 -0.061951
-0.097713 -0.161096 -0.074800
-0.059622 -0.162212 -0.059985
-0.108665 -0.162216 -0.049350
-0.053664 -0.161935 -0.092264
-0.074888 -0.162266 -0.015698
-0.070900 -0.162017 -0.070987
-0.094238 -0.161808 -0.020296
-0.091390 -0.161786 -0.054283
-0.105983 -0.161850 -0.033265
-0.080198 -0.161719 -0.042947
-0.085813 -0.161660 -0.067682
-0.077651 -0.161716 -0.097588
-0.040195 -0.161834 -0.078989
-0.044064 -0.162180 -0.027781
-0.054687 -0.162369 -0.036754
-0.082214 -0.161659 -0.081095
-0.075138 -0.162486 -0.057170
-0.067333 -0.161618 -0.085827
-0.094461 -0.161966 -0.041466
-0.056910 -0.161459 -0.075562
-0.048582 -0.161546 -0.050346
-0.110964 -0.161618 -0.078771
-0.070154 -0.162126 -0.032163
-0.102812 -0.161555 -0.062675
-0.095498 -0.162115 -0.091679
-0.035105 -0.161658 -0.043515
-0.032055 -0.161794 -0.058850
-0.059361 -0.161901 -0.021862
-0.196235 0.083307 -0.070491
-0.196199 0.080971 -0.049634
-0.196636 0.053837 -0.064292
-0.195957 0.061670 -0.060429
-0.196241 0.074009 -0.072523
-0.196136 0.084362 -0.059760
-0.196007 0.047089 -0.058639
-0.195847 0.078138 -0.080488
-0.196671 0.046934 -0.043067
-0.196420 0.054096 -0.072686
-0.196157 0.063071 -0.037549
-0.196559 0.067472 -0.055717
-0.196081 0.065592 -0.045975
-0.196452 0.060051 -0.051118
-0.196245 0.068570 -0.064714
-0.196437 0.059167 -0.085761
-0.196511 0.050227 -0.080102
-0.196781 0.056225 -0.043476
-0.196983 0.041464 -0.052181
-0.196562 0.059975 -0.077756
-0.196558 0.039490 -0.063572
-0.195956 0.066595 -0.073381
-0.196743 0.050704 -0.050316
-0.197051 0.047377 -0.068098
-0.196488 0.055197 -0.056651
-0.196379 0.068479 -0.081787
-0.196435 0.072318 -0.049807
-0.196354 0.076848 -0.064751
-0.196719 0.042284 -0.074774
-0.196697 0.074824 -0.057460
-0.196632 0.061313 -0.068077
-0.195839 0.073208 -0.040589
-0.196281 0.039877 -0.083541
-0.196352 0.037437 -0.063265
-0.196627 0.011179 -0.077495
-0.196013 0.018762 -0.073716
-0.196331 0.030787 -0.085579
-0.196189 0.040643 -0.073482
-0.196055 0.004705 -0.072050
-0.195955 0.034899 -0.093151
-0.196613 0.004289 -0.056699
-0.196421 0.011532 -0.085759
-0.196068 0.019920 -0.051337
-0.196581 0.024548 -0.069233
-0.196180 0.022315 -0.059741
-0.196522 0.017207 -0.064805
-0.196258 0.025371 -0.077996
-0.196454 0.016625 -0.097951
-0.196563 0.007870 -0.092746
-0.196767 0.013147 -0.057170
-0.196852 -0.000723 -0.065564
-0.196566 0.017365 -0.090399
-0.196416 -0.002327 -0.076676
-0.195994 0.023569 -0.086302
-0.196707 0.008188 -0.063847
-0.196912 0.005145 -0.081051
-0.196510 0.012394 -0.070104
-0.196499 0.025413 -0.094627
-0.196481 0.028961 -0.063424
-0.196470 0.033534 -0.078124
-0.196616 0.000476 -0.087202
-0.196797 0.031515 -0.071114
-0.196775 0.018281 -0.081152
-0.195934 0.029886 -0.054443
-0.046305 -0.000573 0.007856
-0.074175 0.026833 0.048724
-0.063248 -0.016942 0.023287
-0.086276 -0.007178 0.016986
-0.079661 0.007518 0.002334
-0.071933 0.046499 0.016649
-0.083941 -0.026494 0.022821
-0.065016 0.013497 -0.011607
-0.061943 -0.026071 0.049059
-0.076373 -0.018308 0.006269
-0.071956 -0.008674 0.067372
-0.078353 -0.006925 0.021271
-0.079084 -0.000998 0.046004
-0.070658 -0.007372 0.039336
-0.069202 0.003906 0.022147
-0.060351 -0.019127 -0.029035
-0.027709 -0.015134 -0.009476
-0.035979 -0.011220 0.050872
-0.037821 -0.028097 0.032508
-0.071688 -0.006409 -0.018427
-0.068501 -0.038072 0.019853
-0.065697 -0.006448 0.008129
-0.076125 -0.019360 0.040350
-0.057154 -0.027561 0.002520
-0.048140 -0.013788 0.018300
-0.084470 -0.007254 -0.005909
-0.057660 -0.004454 0.037814
-0.085011 0.019556 0.025180
-0.074815 -0.029805 -0.015231
-0.039794 0.015120 0.031581
-0.004182 -0.010069 0.025265
-0.062387 0.002846 0.058896
0.191423 -0.010009 0.190221
0.192435 -0.012097 0.228603
0.191282 -0.055456 0.202007
0.192179 -0.047640 0.207286
0.192089 -0.026162 0.185222
0.191988 -0.003439 0.209197
0.192257 -0.067816 0.211898
0.191569 -0.016643 0.167406
0.191217 -0.066845 0.240818
0.191576 -0.054287 0.187829
0.191252 -0.041308 0.250098
0.191488 -0.037522 0.213762
0.191929 -0.041146 0.234748
0.191431 -0.045725 0.223446
0.191886 -0.033519 0.199872
0.191158 -0.048443 0.160130
0.189953 -0.059930 0.175103
0.191418 -0.049793 0.237523
0.190375 -0.073535 0.221802
0.191158 -0.046721 0.175093
0.191934 -0.078157 0.201856
0.192581 -0.038159 0.184873
0.191448 -0.060899 0.225441
0.190926 -0.064599 0.193949
0.191586 -0.053355 0.214965
0.191548 -0.034449 0.169023
0.191836 -0.030728 0.227808
0.193331 -0.020734 0.203131
0.190750 -0.073171 0.180033
0.191601 -0.024612 0.214483
0.192053 -0.043678 0.196693
0.192147 -0.023862 0.242529
-0.193590 -0.145585 -0.183441
-0.197530 -0.143968 -0.161410
-0.194941 -0.160932 -0.175395
-0.196756 -0.156898 -0.179912
-0.196733 -0.148576 -0.189254
-0.196408 -0.139657 -0.175478
-0.195770 -0.160768 -0.169946
-0.195759 -0.147412 -0.199528
-0.193520 -0.161241 -0.151495
-0.196411 -0.160637 -0.187684
-0.196771 -0.158340 -0.145508
-0.197585 -0.155228 -0.173321
-0.196435 -0.156599 -0.156552
-0.196491 -0.158094 -0.166450
-0.196588 -0.152696 -0.181525
-0.194929 -0.161654 -0.209941
-0.184583 -0.163267 -0.194549
-0.187755 -0.162377 -0.156063
-0.182125 -0.162478 -0.168234
-0.196337 -0.160810 -0.198236
-0.193391 -0.161262 -0.182854
-0.195660 -0.156502 -0.190313
-0.194979 -0.161256 -0.162615
-0.189367 -0.161305 -0.189031
-0.189960 -0.162346 -0.174373
-0.196624 -0.154417 -0.198012
-0.196407 -0.154132 -0.161741
-0.197340 -0.147889 -0.174161
-0.194319 -0.161660 -0.203241
-0.193813 -0.147482 -0.167327
-0.179669 -0.163020 -0.179940
-0.196552 -0.151110 -0.152200
-0.196411 -0.002205 -0.109912
-0.196356 -0.004992 -0.089917
-0.196741 -0.032511 -0.103918
-0.196109 -0.024779 -0.100110
-0.196393 -0.011924 -0.111929
-0.196384 -0.001661 -0.099771
-0.196314 -0.039909 -0.098680
-0.196088 -0.007607 -0.119367
-0.196962 -0.040152 -0.083517
-0.196623 -0.032650 -0.112273
-0.196407 -0.023258 -0.077970
-0.196753 -0.018443 -0.095824
-0.196379 -0.020532 -0.086287
-0.196653 -0.026259 -0.091290
-0.196340 -0.017542 -0.104352
-0.196667 -0.027161 -0.124329
-0.196771 -0.036346 -0.119171
-0.197123 -0.030562 -0.084015
-0.197211 -0.045621 -0.092422
-0.196739 -0.026129 -0.116730
-0.196711 -0.047561 -0.103568
-0.196158 -0.019450 -0.112705
-0.196878 -0.036194 -0.090721
-0.197122 -0.039335 -0.107507
-0.196683 -0.031517 -0.096615
-0.196689 -0.017727 -0.120969
-0.196633 -0.013606 -0.090044
-0.196539 -0.009151 -0.104712
-0.196876 -0.044569 -0.113767
-0.196785 -0.011011 -0.097578
-0.196805 -0.025294 -0.107765
-0.196042 -0.012762 -0.080831
-0.196400 -0.024584 -0.128647
-0.196216 -0.027190 -0.108191
-0.196701 -0.054570 -0.122432
-0.196093 -0.046920 -0.118657
-0.196318 -0.034300 -0.130648
-0.196395 -0.023954 -0.118339
-0.196213 -0.062056 -0.117085
-0.196003 -0.030082 -0.138282
-0.196873 -0.062412 -0.101631
-0.196538 -0.054820 -0.131031
-0.196299 -0.045292 -0.095851
-0.196717 -0.040639 -0.114282
-0.196375 -0.042815 -0.104424
-0.196576 -0.048377 -0.109553
-0.196265 -0.039762 -0.123020
-0.196573 -0.049187 -0.143372
-0.196696 -0.058507 -0.138112
-0.196951 -0.052792 -0.102019
-0.197150 -0.067963 -0.110834
-0.196574 -0.048329 -0.135604
-0.196638 -0.070009 -0.122098
-0.196097 -0.041635 -0.131633
-0.196818 -0.058254 -0.108990
-0.197070 -0.061610 -0.126205
-0.196613 -0.053546 -0.114965
-0.196555 -0.039999 -0.139925
-0.196521 -0.035945 -0.108331
-0.196430 -0.031467 -0.123284
-0.196824 -0.066943 -0.132548
-0.196800 -0.033176 -0.116017
-0.196789 -0.047433 -0.126489
-0.195961 -0.034972 -0.099102
-0.196052 0.169860 -0.051582
-0.196162 0.168804 -0.023396
-0.196465 0.137830 -0.043070
-0.196317 0.147046 -0.039502
-0.196423 0.162069 -0.055786
-0.196078 0.171603 -0.038535
-0.196125 0.128420 -0.036449
-0.196000 0.165518 -0.067723
-0.196259 0.129007 -0.013660
-0.196380 0.138377 -0.054549
-0.196076 0.148429 -0.005685
-0.196651 0.153451 -0.033789
-0.196069 0.152331 -0.018887
-0.196312 0.145415 -0.026237
-0.196362 0.155448 -0.045185
-0.196304 0.144209 -0.074284
-0.196296 0.134029 -0.064442
-0.196426 0.140785 -0.014773
-0.197126 0.121422 -0.027590
-0.196350 0.145542 -0.062860
-0.196390 0.117952 -0.042460
-0.195941 0.152416 -0.056051
-0.196371 0.133454 -0.025554
-0.197073 0.128412 -0.049800
-0.196276 0.139221 -0.033574
-0.196531 0.155212 -0.066351
-0.196250 0.158036 -0.024928
-0.196585 0.163433 -0.042921
-0.197037 0.121825 -0.059160
-0.196812 0.161923 -0.032733
-0.196854 0.146801 -0.048106
-0.195572 0.160553 -0.011843
-0.196413 0.165663 -0.056435
-0.196436 0.163449 -0.033830
-0.196654 0.132913 -0.049505
-0.196032 0.141651 -0.045511
-0.196296 0.156173 -0.058659
-0.196455 0.167003 -0.044806
-0.196091 0.124802 -0.043741
-0.195989 0.160555 -0.067400
-0.196720 0.124863 -0.026612
-0.196497 0.132813 -0.058646
-0.196300 0.143673 -0.020516
-0.196655 0.148453 -0.040579
-0.196203 0.146791 -0.029897
-0.196580 0.139962 -0.035311
-0.196393 0.149759 -0.049927
-0.196359 0.138965 -0.073084
-0.196542 0.128652 -0.066763
-0.196793 0.135708 -0.027011
-0.197173 0.118466 -0.036592
-0.196558 0.140076 -0.063961
-0.196601 0.116204 -0.048744
-0.196105 0.147453 -0.059236
-0.196603 0.128806 -0.034880
-0.197121 0.125125 -0.053906
-0.196576 0.134010 -0.041555
-0.196402 0.149694 -0.068564
-0.196486 0.153734 -0.034154
-0.196463 0.158984 -0.050205
-0.196751 0.119250 -0.060963
-0.196958 0.156693 -0.041874
-0.196685 0.141322 -0.053739
-0.195956 0.155136 -0.024001
0.186813 -0.160326 0.069801
0.154928 -0.160248 0.108954
0.173407 -0.160688 0.091348
0.130331 -0.160359 0.074922
0.147257 -0.160419 0.063117
0.178323 -0.161174 0.076891
0.137739 -0.160738 0.092941
0.181782 -0.160399 0.040625
0.164813 -0.160942 0.124103
0.169052 -0.160699 0.065805
0.148741 -0.160659 0.123901
0.151271 -0.160476 0.083823
0.139809 -0.160724 0.107543
0.161481 -0.160793 0.095718
0.156822 -0.160845 0.072643
0.163948 -0.160601 0.034779
0.188645 -0.160776 0.055868
0.186512 -0.160183 0.113921
0.180349 -0.161501 0.101339
0.158927 -0.161121 0.054058
0.165575 -0.161293 0.081268
0.171240 -0.160803 0.049880
0.150087 -0.161042 0.096406
0.178688 -0.160600 0.061055
0.185108 -0.160564 0.088027
0.136873 -0.160901 0.055548
0.166741 -0.160720 0.108178
0.140944 -0.159940 0.078735
0.149146 -0.161015 0.043025
0.191389 -0.159486 0.098081
0.191175 -0.159990 0.080024
0.176476 -0.161566 0.115539
-0.196266 0.024988 -0.107618
-0.196067 0.022068 -0.083116
-0.196460 -0.009041 -0.100022
-0.195922 -0.000289 -0.095976
-0.196286 0.014642 -0.110539
-0.196096 0.025682 -0.095884
-0.195960 -0.017862 -0.093736
-0.196114 0.019317 -0.119570
-0.196550 -0.017855 -0.075417
-0.196311 -0.009012 -0.110458
-0.195947 0.001146 -0.068293
-0.196303 0.006504 -0.090564
-0.196174 0.004579 -0.078359
-0.196303 -0.001902 -0.084500
-0.196072 0.008386 -0.100840
-0.196471 -0.003135 -0.125120
-0.196541 -0.012871 -0.118606
-0.196602 -0.007118 -0.075521
-0.196935 -0.024095 -0.086444
-0.196385 -0.001157 -0.115918
-0.196472 -0.026393 -0.099293
-0.195817 0.006022 -0.110960
-0.196347 -0.013276 -0.084085
-0.196766 -0.016876 -0.105067
-0.196247 -0.007743 -0.091291
-0.196350 0.007872 -0.120765
-0.196159 0.012053 -0.083523
-0.196325 0.017662 -0.100516
-0.196691 -0.022895 -0.112209
-0.196398 0.015086 -0.091955
-0.196492 -0.000310 -0.104733
-0.195676 0.013444 -0.073012
-0.196335 -0.101758 -0.176241
-0.196272 -0.104393 -0.155355
-0.196900 -0.130127 -0.170070
-0.196199 -0.122386 -0.166710
-0.196354 -0.110861 -0.178562
-0.196195 -0.101371 -0.165512
-0.196203 -0.136493 -0.164440
-0.195918 -0.107196 -0.186514
-0.196952 -0.137090 -0.148598
-0.196698 -0.129853 -0.178808
-0.196393 -0.121323 -0.142767
-0.196678 -0.117151 -0.161873
-0.196277 -0.119368 -0.151736
-0.196685 -0.124247 -0.157013
-0.196358 -0.116118 -0.170902
-0.196614 -0.124686 -0.191763
-0.196846 -0.133373 -0.185861
-0.196992 -0.128195 -0.148951
-0.197143 -0.141928 -0.158029
-0.196720 -0.124083 -0.183855
-0.196678 -0.143483 -0.169937
-0.196111 -0.118076 -0.179382
-0.196919 -0.133068 -0.156171
-0.197216 -0.136335 -0.174104
-0.196773 -0.128508 -0.162369
-0.196352 -0.116095 -0.187969
-0.196531 -0.112708 -0.155592
-0.196435 -0.108494 -0.170900
-0.196813 -0.141041 -0.181239
-0.196840 -0.110175 -0.163530
-0.196730 -0.123321 -0.174077
-0.196088 -0.111727 -0.146350
-0.139676 -0.162367 -0.160201
-0.168949 -0.162429 -0.127661
-0.153145 -0.162035 -0.142570
-0.186223 -0.162065 -0.159132
-0.176107 -0.162423 -0.168657
-0.149835 -0.162613 -0.155709
-0.182253 -0.162531 -0.141306
-0.145711 -0.162616 -0.184852
-0.160558 -0.162542 -0.114452
-0.158577 -0.162376 -0.165419
-0.172569 -0.162718 -0.113035
-0.171035 -0.162716 -0.149760
-0.180134 -0.162184 -0.127432
-0.163114 -0.162128 -0.138459
-0.168031 -0.162768 -0.160838
-0.162865 -0.162801 -0.191168
-0.135888 -0.162516 -0.172729
-0.139197 -0.162502 -0.120854
-0.146216 -0.162157 -0.133866
-0.166299 -0.162768 -0.175106
-0.160317 -0.162806 -0.151595
-0.155849 -0.162623 -0.178759
-0.172218 -0.162626 -0.138846
-0.149078 -0.162302 -0.168761
-0.141835 -0.162481 -0.146659
-0.183434 -0.162814 -0.176021
-0.158529 -0.162537 -0.128182
-0.180242 -0.162533 -0.154035
-0.174176 -0.162855 -0.185381
-0.132422 -0.162177 -0.135418
-0.128718 -0.162253 -0.152432
-0.149040 -0.162592 -0.121176
0.190606 -0.065836 0.129483
0.191344 -0.068519 0.163829
0.189817 -0.108174 0.140563
0.190426 -0.097241 0.145473
0.190950 -0.077900 0.125174
0.191693 -0.062756 0.147206
0.190513 -0.119692 0.149217
0.190648 -0.074220 0.109127
0.189563 -0.119012 0.178687
0.189758 -0.106848 0.126004
0.189781 -0.094455 0.186719
0.190483 -0.088178 0.151976
0.190415 -0.090615 0.171333
0.189934 -0.097972 0.160751
0.190806 -0.086019 0.137512
0.190333 -0.101205 0.099662
0.189370 -0.113357 0.113919
0.190243 -0.103218 0.175233
0.189448 -0.127943 0.160450
0.189896 -0.098784 0.114587
0.189955 -0.131522 0.141289
0.190756 -0.090425 0.122584
0.190136 -0.113104 0.162899
0.189414 -0.118721 0.131911
0.189852 -0.106649 0.152732
0.190170 -0.087032 0.108300
0.190246 -0.081861 0.164301
0.191364 -0.073732 0.140072
0.188957 -0.126858 0.118945
0.190479 -0.077943 0.151646
0.190416 -0.097464 0.134699
0.191007 -0.078985 0.178348
-0.196278 -0.042154 -0.148865
-0.196107 -0.044667 -0.127618
-0.196705 -0.072710 -0.142448
