# .PCD v0.7 - Point Cloud Data file format
VERSION 0.7
FIELDS x y z
SIZE 4 4 4
TYPE F F F
COUNT 1 1 1
WIDTH 1695
HEIGHT 1
VIEWPOINT 0 0 0 1 0 0 0
POINTS 1695
DATA ascii
-0.190852 -0.028715 0.263940
-0.205571 -0.001904 0.267000
-0.195744 0.004946 0.284629
-0.199718 -0.049100 0.276113
-0.197244 -0.023030 0.251873
-0.189630 -0.043508 0.299993
-0.190729 -0.030833 0.269084
-0.193908 -0.029854 0.294724
-0.191934 -0.017185 0.280657
-0.196569 -0.026361 0.285148
-0.195722 -0.029590 0.289468
-0.193042 -0.013838 0.267172
-0.193957 -0.026584 0.250962
-0.197932 -0.038280 0.260612
-0.195053 -0.040079 0.287023
-0.194495 -0.042976 0.288061
-0.200026 -0.019516 0.254540
-0.195168 -0.038683 0.263930
-0.194136 -0.031471 0.253464
-0.200633 -0.030817 0.278291
-0.189108 -0.041456 0.273772
-0.190152 -0.033283 0.278914
-0.198582 -0.016430 0.250958
-0.204485 -0.013212 0.273823
-0.199851 -0.005050 0.270424
-0.188256 -0.048963 0.272999
-0.192076 -0.013222 0.289277
-0.192871 -0.034560 0.271893
-0.202839 -0.018243 0.301130
0.053249 -0.039174 0.424463
0.037074 -0.011929 0.427378
0.030399 -0.035181 0.425307
0.013185 -0.042476 0.417590
0.036287 -0.036223 0.414603
0.045647 -0.019350 0.417333
0.023815 -0.051987 0.427281
0.053636 -0.026081 0.421073
0.036087 -0.044046 0.423363
0.052494 -0.043832 0.429562
0.019627 -0.043033 0.425640
0.030072 -0.039382 0.423912
0.018445 -0.041142 0.417649
0.035109 -0.041989 0.431197
0.026643 -0.023438 0.421143
0.050883 -0.049837 0.420825
0.051733 -0.048291 0.414878
0.053628 -0.043935 0.418134
0.061973 -0.062597 0.426781
0.017309 -0.046204 0.419400
0.030614 -0.055812 0.419402
0.039982 -0.022534 0.428983
0.030898 -0.045333 0.431428
0.054919 -0.061002 0.427910
0.047177 -0.047044 0.421182
0.020327 -0.043463 0.419235
0.048455 -0.040399 0.429985
0.014149 -0.024745 0.422340
0.038725 -0.052772 0.418844
0.053871 -0.033346 0.422488
0.051740 -0.038004 0.414021
0.052567 -0.020261 0.419878
-0.194307 -0.111951 0.193434
-0.198857 -0.123497 0.199221
-0.204016 -0.144193 0.197490
-0.195158 -0.134652 0.202135
-0.193147 -0.116612 0.187115
-0.202351 -0.113385 0.191399
-0.199931 -0.145673 0.200712
-0.194496 -0.129070 0.164507
-0.189446 -0.160711 0.215647
-0.195647 -0.156603 0.181199
-0.195302 -0.141154 0.219343
-0.190609 -0.131199 0.203499
-0.189440 -0.141671 0.218013
-0.188228 -0.140011 0.210147
-0.185807 -0.129891 0.194874
-0.202521 -0.133787 0.163310
-0.192251 -0.140616 0.162172
-0.193572 -0.142018 0.217829
-0.186542 -0.146529 0.197565
-0.193654 -0.140647 0.185605
-0.195326 -0.154529 0.189813
-0.188429 -0.136459 0.181249
-0.195529 -0.140056 0.197388
-0.200217 -0.163158 0.190606
-0.199552 -0.148567 0.199185
-0.199769 -0.138456 0.170944
-0.189060 -0.134815 0.208544
-0.189175 -0.118177 0.196197
-0.200777 -0.154120 0.174908
-0.186411 -0.132435 0.189776
-0.191451 -0.145277 0.181890
-0.201148 -0.128616 0.223296
-0.192265 -0.034211 0.242999
-0.201876 -0.045717 0.265557
-0.193830 -0.072045 0.256531
-0.202333 -0.063307 0.255703
-0.194159 -0.049457 0.244881
-0.203217 -0.031229 0.251433
-0.193297 -0.077446 0.251841
-0.184599 -0.044639 0.223404
-0.207578 -0.066834 0.267326
-0.193469 -0.068645 0.238053
-0.187907 -0.061385 0.273212
-0.193573 -0.051189 0.253079
-0.195681 -0.051675 0.277862
-0.193319 -0.056199 0.265548
-0.193656 -0.066913 0.249857
-0.195139 -0.058664 0.236123
-0.197163 -0.067535 0.240065
-0.192233 -0.080825 0.280617
-0.203101 -0.086124 0.260417
-0.198597 -0.068317 0.242121
-0.190325 -0.080746 0.242071
-0.194403 -0.062909 0.237811
-0.186664 -0.074370 0.259903
-0.205639 -0.073865 0.253558
-0.194825 -0.079765 0.247009
-0.190500 -0.051628 0.245568
-0.204864 -0.053860 0.270383
-0.189685 -0.048853 0.252955
-0.196149 -0.090047 0.233189
-0.187812 -0.061452 0.249038
-0.198615 -0.056967 0.251363
-0.202024 -0.052901 0.265819
0.105915 -0.093177 0.428156
0.087582 -0.089795 0.425727
0.098821 -0.111113 0.413999
0.057344 -0.101532 0.429284
0.074527 -0.082221 0.423505
0.100917 -0.070122 0.424329
0.074703 -0.110244 0.421524
0.096644 -0.098159 0.420235
0.101293 -0.113330 0.423074
0.089894 -0.108213 0.413430
0.077002 -0.111712 0.417496
0.072350 -0.090829 0.428700
0.060127 -0.097671 0.432273
0.087171 -0.108492 0.416728
0.079414 -0.094233 0.417912
0.096101 -0.101318 0.424057
0.107933 -0.112436 0.424066
0.091889 -0.099314 0.418485
0.098575 -0.111014 0.428580
0.075599 -0.103562 0.434691
0.088476 -0.131450 0.415817
0.095341 -0.086752 0.435381
0.086547 -0.122828 0.418007
0.088331 -0.122559 0.426525
0.091909 -0.105811 0.423846
0.078210 -0.092203 0.424536
0.111922 -0.106649 0.425816
0.057437 -0.100940 0.427127
0.066534 -0.116878 0.415696
0.117740 -0.090670 0.426428
0.126064 -0.106265 0.431016
0.085750 -0.091595 0.421353
-0.004635 -0.168208 0.298366
-0.051847 -0.169155 0.340871
-0.031078 -0.161204 0.326638
-0.077087 -0.158644 0.317362
-0.060800 -0.171246 0.282151
-0.019121 -0.173079 0.303127
-0.068650 -0.164745 0.314790
-0.023901 -0.154021 0.289087
-0.038296 -0.165351 0.355423
-0.021595 -0.168912 0.292130
-0.066028 -0.159337 0.352575
-0.054475 -0.159368 0.317976
-0.066863 -0.170987 0.340127
-0.043810 -0.160618 0.318549
-0.051684 -0.163122 0.301528
-0.036444 -0.169053 0.272058
-0.017090 -0.173392 0.292353
-0.012324 -0.155217 0.336856
-0.014848 -0.170575 0.322766
-0.040697 -0.169238 0.285456
-0.032467 -0.167488 0.311545
-0.025572 -0.161779 0.280533
-0.051225 -0.161462 0.332297
-0.030334 -0.171176 0.298978
-0.013235 -0.169518 0.320476
-0.074047 -0.159352 0.298315
-0.039610 -0.172396 0.340445
-0.062222 -0.162199 0.299713
-0.063336 -0.162528 0.278662
0.006619 -0.164264 0.318578
-0.006375 -0.163381 0.321327
-0.030973 -0.166444 0.339943
0.120698 -0.160480 0.375970
0.081215 -0.152489 0.420290
0.120107 -0.161233 0.410068
0.060922 -0.169073 0.374560
0.074179 -0.158768 0.366208
0.117248 -0.165774 0.391927
0.069887 -0.156780 0.395276
0.120436 -0.158834 0.334450
0.096010 -0.157212 0.419263
0.095813 -0.162557 0.374355
0.087356 -0.163589 0.422056
0.080365 -0.163450 0.376491
0.066483 -0.163986 0.413809
0.101458 -0.169458 0.407401
0.093384 -0.157934 0.370146
0.092851 -0.153891 0.313079
0.133127 -0.162908 0.358405
0.135844 -0.170535 0.420966
0.109307 -0.174103 0.398555
0.100168 -0.170832 0.348960
0.102656 -0.152892 0.379578
0.094518 -0.161884 0.346558
0.095270 -0.157975 0.407996
0.108453 -0.159133 0.363549
0.124149 -0.160773 0.396896
0.058375 -0.170249 0.353732
0.096963 -0.160958 0.420308
0.077024 -0.164836 0.378815
0.077358 -0.165597 0.329166
0.130570 -0.154235 0.399526
0.135643 -0.170165 0.377136
0.117527 -0.160182 0.416270
-0.051992 0.060467 0.316174
-0.087980 0.064195 0.389285
-0.074881 -0.021880 0.369931
-0.092443 -0.001931 0.349459
-0.088054 0.033966 0.311295
-0.075924 0.090045 0.345949
-0.076964 -0.039479 0.375075
-0.073166 0.059380 0.295268
-0.063586 -0.052760 0.406638
-0.073814 -0.022927 0.331896
-0.068616 -0.001249 0.402827
-0.076324 0.027994 0.350496
-0.093963 0.029184 0.394062
-0.070897 0.010605 0.380616
-0.073446 0.031278 0.361717
-0.056969 -0.026343 0.260935
-0.039072 -0.015139 0.317730
-0.055118 -0.015510 0.401811
-0.045347 -0.052156 0.372543
-0.063543 0.012515 0.292289
-0.064993 -0.070249 0.358424
-0.066599 0.012511 0.318234
-0.075520 -0.031407 0.392793
-0.061719 -0.051569 0.318791
-0.057711 -0.020935 0.344104
-0.095816 0.009261 0.317171
-0.060208 0.028998 0.377380
-0.077125 0.072617 0.355346
-0.070163 -0.063164 0.283916
-0.067831 0.058211 0.373178
-0.037155 -0.001370 0.337593
-0.088824 0.029337 0.406306
0.073577 -0.067054 0.424287
0.058673 -0.041869 0.431193
0.065335 -0.055121 0.419104
0.034232 -0.067148 0.426963
0.051646 -0.039804 0.431534
0.075758 -0.039629 0.414848
0.046557 -0.067187 0.424157
0.085935 -0.057078 0.420985
0.068561 -0.082492 0.429739
0.066749 -0.072183 0.428402
0.051567 -0.065818 0.417710
0.066533 -0.054146 0.421248
0.039047 -0.061154 0.428569
0.066444 -0.048423 0.420051
0.068435 -0.054404 0.415906
0.068743 -0.072819 0.419905
0.081660 -0.067928 0.422744
0.081693 -0.066276 0.418927
0.092034 -0.090600 0.419388
0.053285 -0.068239 0.424416
0.065285 -0.087716 0.423994
0.065961 -0.050820 0.428549
0.049628 -0.075822 0.424904
0.069708 -0.074128 0.420459
0.074699 -0.078050 0.426320
0.059113 -0.058247 0.425584
0.069267 -0.061247 0.423890
0.054314 -0.046657 0.425451
0.047579 -0.094763 0.422989
0.082812 -0.053463 0.420749
0.081481 -0.054093 0.421716
0.066582 -0.043643 0.414967
-0.158868 0.176930 0.328099
-0.193879 0.176567 0.358745
-0.181838 0.185549 0.343198
-0.196649 0.181414 0.335033
-0.195736 0.175367 0.318557
-0.176777 0.182628 0.335680
-0.195611 0.173270 0.358813
-0.164339 0.176741 0.308748
-0.186161 0.183499 0.365012
-0.186882 0.184742 0.329075
-0.190415 0.182045 0.371310
-0.193546 0.187301 0.338064
-0.195669 0.175572 0.352959
-0.196465 0.177457 0.349357
-0.189595 0.184771 0.322134
-0.190947 0.184717 0.304636
-0.161712 0.183811 0.306471
-0.174121 0.184949 0.358199
-0.167374 0.178645 0.352492
-0.197347 0.187320 0.304629
-0.187520 0.186249 0.341138
-0.186312 0.182258 0.310091
-0.194660 0.178161 0.361123
-0.180016 0.185729 0.332068
-0.172489 0.169974 0.334433
-0.201960 0.181482 0.312588
-0.184714 0.175536 0.366490
-0.198933 0.169581 0.336914
-0.192237 0.171748 0.299850
-0.155061 0.172582 0.355529
-0.161263 0.173991 0.344529
-0.182591 0.173866 0.357890
0.048661 -0.155233 0.345606
0.019763 -0.156353 0.373192
0.033791 -0.153252 0.357805
-0.000917 -0.159959 0.361097
0.019868 -0.169495 0.332866
0.049294 -0.165220 0.355650
-0.005418 -0.162225 0.358283
0.055470 -0.171828 0.319609
0.034610 -0.164194 0.383844
0.041867 -0.158067 0.339306
0.013567 -0.154725 0.388747
0.017607 -0.150931 0.348263
0.013760 -0.154424 0.372654
0.021131 -0.167466 0.364216
0.018733 -0.159240 0.335384
0.023262 -0.167923 0.313372
0.071189 -0.171705 0.326698
0.051492 -0.166034 0.390628
0.055645 -0.165927 0.370662
0.021911 -0.157275 0.332086
0.028258 -0.159362 0.360476
0.035567 -0.157861 0.319590
0.031679 -0.168510 0.362673
0.042706 -0.169274 0.333814
0.047561 -0.170525 0.357104
-0.003894 -0.167057 0.335523
0.028281 -0.164976 0.368984
0.010461 -0.166520 0.335919
0.014693 -0.154410 0.318943
0.067930 -0.166919 0.376491
0.067959 -0.166672 0.359014
0.049108 -0.158877 0.388567
-0.103004 -0.161301 0.225056
-0.151678 -0.168631 0.264894
-0.141602 -0.156113 0.244877
-0.165220 -0.163831 0.222504
-0.154723 -0.166997 0.220319
-0.116655 -0.164622 0.226172
-0.161908 -0.170992 0.229241
-0.124312 -0.162509 0.205338
-0.137313 -0.161041 0.268197
-0.138809 -0.166829 0.211743
-0.154424 -0.165037 0.281175
-0.148881 -0.161330 0.230250
-0.157546 -0.159500 0.259528
-0.146660 -0.168217 0.254237
-0.143141 -0.165091 0.224951
-0.126304 -0.163480 0.182886
-0.113849 -0.158596 0.213858
-0.106755 -0.156369 0.259650
-0.119456 -0.164064 0.240994
-0.145961 -0.161650 0.217845
-0.145262 -0.158942 0.233467
-0.134600 -0.162955 0.200134
-0.151016 -0.162298 0.255398
-0.108751 -0.166200 0.207794
-0.119857 -0.170664 0.237392
-0.168218 -0.167096 0.206382
-0.127190 -0.169465 0.257527
-0.151790 -0.160276 0.219425
-0.148266 -0.166312 0.194943
-0.098551 -0.173718 0.228392
-0.105911 -0.157250 0.226169
-0.127115 -0.162404 0.253966
-0.198860 0.028817 0.266686
-0.194476 0.029942 0.288062
-0.203833 -0.009640 0.284173
-0.189050 -0.000739 0.289615
-0.197258 0.007536 0.258525
-0.192228 0.022081 0.275474
-0.201067 -0.024176 0.283646
-0.203278 0.018440 0.254098
-0.198954 -0.017460 0.312918
-0.191503 -0.009416 0.274555
-0.193252 0.000273 0.307287
-0.187487 -0.004280 0.291356
-0.186700 -0.005583 0.299468
-0.194588 0.005814 0.307899
-0.196343 0.018006 0.283522
-0.191509 -0.011495 0.256054
-0.194504 -0.011627 0.255422
-0.202699 -0.005468 0.305084
-0.196318 -0.027672 0.305536
-0.189988 -0.001140 0.256803
-0.189734 -0.028362 0.292699
-0.197332 0.000413 0.275371
-0.192177 -0.023184 0.306358
-0.200904 -0.018836 0.272944
-0.202459 -0.014775 0.291826
-0.196534 0.003283 0.258055
-0.197591 0.006551 0.303321
-0.198585 0.025340 0.285803
-0.191724 -0.040412 0.251194
-0.197381 0.016695 0.299158
-0.189813 0.003408 0.271748
-0.198570 0.009581 0.314483
0.046575 0.010483 0.419388
0.011890 0.012955 0.414820
0.032116 0.002804 0.417949
-0.014225 -0.004679 0.420225
0.009294 0.017124 0.417334
0.026317 0.027706 0.427886
-0.008757 -0.012047 0.422139
0.036347 0.008970 0.424092
0.032240 -0.027169 0.422719
0.014986 0.004040 0.424109
0.015700 -0.007551 0.427479
-0.001662 0.010494 0.415246
-0.006867 0.007550 0.419518
0.017354 -0.000547 0.417349
0.010243 0.014941 0.427664
0.020193 0.000448 0.431051
0.049880 -0.013580 0.419383
0.034980 -0.008541 0.426875
0.045444 -0.020729 0.436643
-0.000737 -0.004853 0.419112
0.012167 -0.023196 0.426948
0.029064 0.010009 0.421694
0.010721 -0.019427 0.424473
0.031269 -0.031966 0.414576
0.044131 -0.010033 0.423592
-0.008517 -0.009586 0.427878
0.042080 0.008437 0.417183
-0.000760 0.013346 0.421177
0.010269 -0.025383 0.427945
0.048244 0.009534 0.417639
0.052782 0.000037 0.421232
0.025462 0.022942 0.419840
-0.157218 -0.166217 0.185833
-0.186498 -0.163588 0.218346
-0.171088 -0.159785 0.203464
-0.196608 -0.163515 0.188658
-0.201348 -0.152659 0.176889
-0.172741 -0.160189 0.182006
-0.188607 -0.155332 0.214941
-0.162066 -0.161917 0.159182
-0.171254 -0.168787 0.241040
-0.171464 -0.157692 0.171095
-0.193545 -0.158773 0.234131
-0.200518 -0.170702 0.201560
-0.197960 -0.164033 0.224176
-0.171755 -0.166988 0.207032
-0.190259 -0.159790 0.193024
-0.180006 -0.158495 0.144068
-0.132808 -0.159118 0.170992
-0.152169 -0.157927 0.225026
-0.158099 -0.157501 0.205151
-0.194145 -0.157545 0.164205
-0.173246 -0.161737 0.195343
-0.172061 -0.160068 0.167811
-0.185009 -0.154877 0.212071
-0.156273 -0.159400 0.181366
-0.155805 -0.162055 0.208463
-0.200348 -0.168529 0.159471
-0.174004 -0.169264 0.221047
-0.197934 -0.163548 0.187562
-0.185366 -0.161780 0.163982
-0.148516 -0.164775 0.209011
-0.126861 -0.160393 0.186203
-0.162987 -0.166520 0.234615
0.082279 -0.054192 0.421168
0.059078 -0.034429 0.419616
0.061973 -0.066346 0.425937
0.048984 -0.081707 0.430071
0.057705 -0.046938 0.420201
0.081175 -0.043601 0.419922
0.044042 -0.089605 0.427209
0.086335 -0.058838 0.423794
0.055037 -0.099424 0.420413
0.059208 -0.079649 0.417817
0.060634 -0.075413 0.429851
0.057255 -0.055732 0.423322
0.046878 -0.061351 0.427513
0.059681 -0.073786 0.419539
0.065644 -0.055689 0.425544
0.067512 -0.079985 0.418474
0.090459 -0.087854 0.422356
0.084214 -0.071313 0.429834
0.082705 -0.090736 0.432324
0.048599 -0.078728 0.415383
0.070434 -0.085472 0.429115
0.062532 -0.067595 0.414556
0.067863 -0.084250 0.419397
0.070690 -0.094576 0.415780
0.067557 -0.076414 0.419686
0.044113 -0.059759 0.417262
0.089899 -0.063340 0.425660
0.039813 -0.060801 0.423983
0.061778 -0.088907 0.424474
0.097740 -0.047110 0.424865
0.093106 -0.074836 0.415591
0.073822 -0.052723 0.419893
-0.119473 0.167861 0.344722
-0.145698 0.185408 0.371308
-0.121430 0.178813 0.361254
-0.163563 0.184432 0.343879
-0.148340 0.174323 0.333678
-0.114651 0.180712 0.351095
-0.159400 0.189047 0.363263
-0.125749 0.171453 0.302579
-0.129492 0.185425 0.398588
-0.131464 0.170132 0.334670
-0.139800 0.181872 0.398075
-0.143758 0.175487 0.355742
-0.167898 0.188144 0.382398
-0.120126 0.171524 0.376894
-0.127970 0.174320 0.350741
-0.140143 0.174487 0.306698
-0.124877 0.161548 0.311131
-0.114275 0.180087 0.393178
-0.107362 0.170122 0.361470
-0.153423 0.178386 0.318101
-0.132837 0.185668 0.350364
-0.116551 0.191281 0.310814
-0.147390 0.185154 0.350136
-0.114313 0.179126 0.327354
-0.117277 0.171404 0.351047
-0.166971 0.185469 0.332801
-0.150596 0.182720 0.385372
-0.161467 0.181476 0.358038
-0.139709 0.190048 0.289077
-0.119776 0.175901 0.391326
-0.126931 0.153889 0.358905
-0.125406 0.183451 0.376993
-0.206071 0.039554 0.256381
-0.202244 0.035521 0.282674
-0.190887 0.002348 0.268950
-0.191496 0.020715 0.272700
-0.193801 0.026544 0.263404
-0.191035 0.029103 0.273875
-0.188204 -0.005301 0.267812
-0.199811 0.033912 0.246008
-0.191008 0.002427 0.293683
-0.197955 0.005174 0.257871
-0.191870 0.033327 0.286393
-0.201351 0.031564 0.268861
-0.199480 0.019816 0.279922
-0.189613 0.015788 0.279387
-0.190939 0.029053 0.261032
-0.191788 0.016288 0.247696
-0.191912 0.013792 0.247197
-0.194960 0.011982 0.293207
-0.189430 -0.010754 0.277979
-0.199974 0.017422 0.257371
-0.190864 -0.007992 0.274431
-0.201221 0.025059 0.251620
-0.192905 0.016868 0.276712
-0.187264 0.018025 0.268550
-0.198305 0.003301 0.279636
-0.198104 0.017673 0.245616
-0.191901 0.027905 0.282766
-0.197697 0.028244 0.279035
-0.193451 0.009008 0.270043
-0.198868 0.032301 0.273047
-0.188867 0.013280 0.266401
-0.199459 0.032118 0.295709
-0.192865 0.120484 0.284237
-0.190871 0.106138 0.316246
-0.188685 0.088137 0.304755
-0.204289 0.089374 0.300833
-0.198239 0.106850 0.286245
-0.204836 0.129265 0.307985
-0.203615 0.074995 0.316936
-0.199879 0.094258 0.273906
-0.189293 0.067175 0.329660
-0.189311 0.075333 0.291425
-0.195775 0.082864 0.341223
-0.205325 0.099610 0.324692
-0.186656 0.089862 0.321193
-0.198718 0.092175 0.318251
-0.202588 0.092442 0.299129
-0.190629 0.092603 0.262166
-0.204357 0.073667 0.290187
-0.204001 0.073249 0.326619
-0.190890 0.059414 0.329656
-0.193806 0.079902 0.278903
-0.188341 0.053648 0.292932
-0.198309 0.096096 0.287533
-0.192596 0.076944 0.315600
-0.189898 0.072535 0.294512
-0.189693 0.076355 0.315816
-0.202084 0.091413 0.274887
-0.202708 0.103479 0.321398
-0.191171 0.104108 0.295087
-0.196547 0.054287 0.291277
-0.197665 0.109459 0.317476
-0.193687 0.092328 0.297598
-0.189398 0.113851 0.326493
-0.197686 -0.061778 0.200708
-0.191520 -0.073405 0.234001
-0.192491 -0.089068 0.212911
-0.200688 -0.099312 0.217249
-0.206331 -0.072391 0.208112
-0.199945 -0.061629 0.220810
-0.190683 -0.103759 0.225360
-0.192733 -0.061843 0.198375
-0.200226 -0.104373 0.238408
-0.193768 -0.098963 0.211112
-0.192983 -0.076620 0.237192
-0.194753 -0.085235 0.222710
-0.195880 -0.081163 0.222347
-0.202063 -0.083383 0.223184
-0.200490 -0.084381 0.215303
-0.189358 -0.097133 0.197502
-0.197783 -0.094183 0.201880
-0.196381 -0.095340 0.234521
-0.187773 -0.108799 0.225789
-0.193785 -0.091267 0.211693
-0.195517 -0.112178 0.226129
-0.194876 -0.074118 0.208548
-0.192251 -0.092185 0.226870
-0.192092 -0.100941 0.202693
-0.193921 -0.100959 0.225606
-0.195613 -0.081641 0.211551
-0.201864 -0.064949 0.217201
-0.202230 -0.059080 0.208230
-0.194688 -0.095494 0.213749
-0.186963 -0.071885 0.228560
-0.191112 -0.078656 0.200395
-0.192178 -0.079515 0.237422
-0.198310 -0.150256 0.171194
-0.192377 -0.147160 0.178265
-0.200129 -0.163122 0.169703
-0.193042 -0.163968 0.166382
-0.196885 -0.153087 0.161113
-0.203974 -0.141326 0.156602
-0.193768 -0.163837 0.171586
-0.186975 -0.147850 0.148406
-0.202930 -0.169324 0.182042
-0.188972 -0.158955 0.150194
-0.192087 -0.157526 0.187919
-0.192960 -0.159812 0.173320
-0.194783 -0.159385 0.175945
-0.196717 -0.153127 0.172702
-0.192617 -0.155303 0.157933
-0.197574 -0.158163 0.134960
-0.170376 -0.157257 0.158732
-0.195091 -0.157763 0.190979
-0.183122 -0.160912 0.174880
-0.199095 -0.162076 0.155808
-0.184469 -0.163434 0.164653
-0.195195 -0.150075 0.160104
-0.195491 -0.165361 0.181205
-0.185698 -0.159011 0.163403
-0.187548 -0.157789 0.165672
-0.197661 -0.155148 0.149981
-0.196743 -0.156562 0.167501
-0.193334 -0.161715 0.168903
-0.196704 -0.158420 0.145316
-0.201249 -0.142380 0.165714
-0.176464 -0.158629 0.164763
-0.192681 -0.148066 0.198345
-0.201297 0.098837 0.271707
-0.201181 0.107832 0.309941
-0.187024 0.074679 0.287357
-0.187905 0.085591 0.292344
-0.196037 0.103284 0.286820
-0.198027 0.100721 0.299097
-0.188570 0.059828 0.287527
-0.193092 0.100456 0.264248
-0.189118 0.071195 0.307751
-0.193307 0.072993 0.281774
-0.199536 0.074976 0.304041
-0.200095 0.100901 0.299933
-0.195986 0.076763 0.305947
-0.193078 0.083510 0.294767
-0.189283 0.084101 0.279548
-0.195908 0.079155 0.267967
-0.193918 0.080530 0.277756
-0.191299 0.072687 0.313041
-0.190725 0.064928 0.297659
-0.206073 0.085120 0.271272
-0.201127 0.061519 0.281326
-0.194129 0.092085 0.271359
-0.192922 0.071989 0.293928
-0.197986 0.066785 0.290461
-0.198515 0.081480 0.294545
-0.193778 0.098948 0.268031
-0.193889 0.097961 0.304542
-0.199923 0.101178 0.282043
-0.196165 0.069295 0.282113
-0.194991 0.099317 0.297207
-0.188212 0.083322 0.276041
-0.200911 0.091005 0.310707
0.154349 -0.131804 0.423580
0.135539 -0.121095 0.419243
0.138524 -0.145095 0.418809
0.124961 -0.144834 0.431232
0.126501 -0.121597 0.430505
0.145240 -0.109498 0.421821
0.120394 -0.153353 0.427315
0.148846 -0.125962 0.419688
0.126271 -0.155321 0.418136
0.124554 -0.154523 0.418132
0.132564 -0.149124 0.416395
0.120256 -0.137799 0.430393
0.109525 -0.136384 0.415572
0.143908 -0.133626 0.420124
0.141284 -0.133824 0.430722
0.144029 -0.143344 0.419871
0.161634 -0.149895 0.422776
0.147429 -0.148876 0.427179
0.146261 -0.164110 0.414337
0.117907 -0.139018 0.429250
0.136199 -0.160788 0.418620
0.134953 -0.129272 0.419181
0.141493 -0.147062 0.422739
0.134615 -0.156018 0.415701
0.155192 -0.146213 0.428024
0.132830 -0.139910 0.419439
0.144122 -0.134320 0.418246
0.116552 -0.126280 0.426878
0.124936 -0.154045 0.418535
0.159442 -0.124044 0.418010
0.163134 -0.139853 0.421802
0.144103 -0.126247 0.419014
0.077966 -0.009221 0.428014
0.050516 0.006064 0.424019
0.073116 -0.010432 0.415015
0.036396 -0.023458 0.415524
0.057550 -0.005461 0.422280
0.077771 -0.003232 0.425631
0.050053 -0.025997 0.420518
0.071721 -0.001243 0.427887
0.058432 -0.023356 0.422748
0.073554 -0.024611 0.418276
0.047150 -0.020336 0.424867
0.048104 -0.001026 0.420333
0.032688 -0.010256 0.420277
0.060793 -0.016171 0.433133
0.050861 -0.009604 0.425368
0.068092 -0.009653 0.419834
0.087161 -0.029643 0.416159
0.070155 -0.027592 0.417282
0.087004 -0.019728 0.419491
0.036318 -0.019716 0.422168
0.054906 -0.027074 0.422610
0.056522 -0.013464 0.421154
0.045686 -0.026080 0.414126
0.064487 -0.024900 0.424950
0.063998 -0.027998 0.428608
0.036014 -0.012076 0.422430
0.076131 -0.012039 0.422078
0.055107 -0.012703 0.430470
0.047389 -0.029128 0.418405
0.086531 -0.009517 0.425061
0.086711 -0.012507 0.419005
0.069040 -0.000929 0.424730
0.063738 0.020310 0.426814
0.033891 0.039022 0.417084
0.041739 0.018962 0.420587
-0.002555 0.020792 0.416381
0.017010 0.037749 0.412489
0.056847 0.038401 0.418213
0.009357 0.018835 0.412988
0.059058 0.035887 0.424967
0.036704 0.015879 0.426214
0.036392 0.007379 0.432460
0.021316 0.023293 0.422948
0.023659 0.020865 0.431017
0.015055 0.020269 0.432185
0.029557 0.025275 0.428368
0.033185 0.038979 0.425530
0.035834 0.011680 0.423677
0.072951 0.010392 0.418868
0.061153 0.020887 0.417654
0.063324 -0.000486 0.424677
0.030796 0.009884 0.421003
0.036551 0.004295 0.430704
0.041205 0.037224 0.421270
0.029215 0.008079 0.419779
0.042450 0.004742 0.430431
0.051215 0.024281 0.418666
-0.000875 0.027646 0.428022
0.038682 0.019563 0.426431
0.018082 0.037699 0.429056
0.019790 0.015568 0.414292
0.067065 0.030370 0.420272
0.076573 0.024098 0.425119
0.044733 0.041385 0.424191
-0.198137 0.165384 0.301654
-0.194869 0.169162 0.328480
-0.204323 0.126745 0.296265
-0.196552 0.144955 0.306881
-0.201463 0.171765 0.300938
-0.191799 0.170471 0.317555
-0.186727 0.139122 0.313068
-0.192764 0.163118 0.287642
-0.187393 0.132904 0.322790
-0.204040 0.129602 0.301875
-0.192863 0.150659 0.334851
-0.199430 0.152733 0.316560
-0.195942 0.154469 0.328145
-0.204254 0.151474 0.315665
-0.202970 0.148626 0.297823
-0.193473 0.137943 0.279832
-0.187186 0.134585 0.297646
-0.197822 0.134343 0.314112
-0.190882 0.122581 0.312601
-0.193821 0.139854 0.292926
-0.185084 0.136707 0.308902
-0.199944 0.160609 0.291948
-0.195304 0.143439 0.310924
-0.197602 0.134992 0.294482
-0.202292 0.144489 0.316505
-0.194047 0.154029 0.277790
-0.202858 0.159738 0.316716
-0.206058 0.163785 0.311026
-0.194804 0.130396 0.306478
-0.190658 0.145391 0.311633
-0.196444 0.151983 0.308761
-0.199121 0.164481 0.338953
0.179750 -0.154600 0.426475
0.152668 -0.141848 0.416667
0.162966 -0.158217 0.423919
0.141198 -0.167114 0.417864
0.136192 -0.138204 0.418827
0.174058 -0.132692 0.426353
0.142337 -0.172731 0.422333
0.173420 -0.145996 0.427231
0.158526 -0.168164 0.413629
0.159961 -0.163987 0.421670
0.144210 -0.156769 0.415553
0.144953 -0.147993 0.420926
0.136194 -0.156820 0.422271
0.151706 -0.156712 0.424357
0.153975 -0.144248 0.421662
0.160526 -0.169665 0.427192
0.187593 -0.167707 0.418807
0.177186 -0.166973 0.423519
0.190617 -0.169920 0.428241
0.132769 -0.159766 0.419040
0.151252 -0.156218 0.412188
0.166012 -0.153454 0.421886
0.141978 -0.160624 0.417308
0.164104 -0.161841 0.424457
0.160888 -0.169468 0.419408
0.133931 -0.150397 0.418814
0.161673 -0.150688 0.425971
0.131345 -0.130811 0.416376
0.142991 -0.169951 0.418896
0.180472 -0.154707 0.424060
0.184930 -0.158995 0.421331
0.163774 -0.143900 0.422195
-0.192370 0.019906 0.244063
-0.201365 0.024757 0.250370
-0.200069 -0.007828 0.245165
-0.194607 -0.007526 0.254037
-0.200003 0.006309 0.234864
-0.193722 0.017594 0.252528
-0.193804 -0.025712 0.256813
-0.194926 0.008737 0.224443
-0.189993 -0.009453 0.256881
-0.191878 -0.020302 0.238414
-0.200402 0.002724 0.264365
-0.199774 -0.003721 0.249059
-0.200221 -0.001283 0.258847
-0.193034 -0.007407 0.258903
-0.190521 0.002518 0.240644
-0.200920 -0.020539 0.224471
-0.199957 -0.020720 0.218580
-0.193655 -0.014689 0.254531
-0.185722 -0.024751 0.258363
-0.193017 -0.020799 0.238116
-0.197116 -0.025058 0.242607
-0.192853 -0.000722 0.241856
-0.188095 -0.024340 0.253772
-0.190680 -0.020366 0.245859
-0.190763 -0.018903 0.250059
-0.196295 0.002855 0.231934
-0.195878 -0.001258 0.266468
-0.200069 0.004866 0.241301
-0.201782 -0.032462 0.228592
-0.201071 0.013808 0.252231
-0.191441 -0.011245 0.236758
-0.204731 0.002807 0.277650
-0.190023 0.085749 0.265948
-0.199947 0.087643 0.282333
-0.191786 0.044884 0.266716
-0.190718 0.058903 0.270971
-0.191496 0.075672 0.252534
-0.186749 0.075739 0.270406
-0.196093 0.054672 0.278333
-0.200615 0.077431 0.249027
-0.201032 0.054033 0.279487
-0.194284 0.055925 0.259527
-0.196592 0.054581 0.286708
-0.200378 0.062975 0.266363
-0.200734 0.075646 0.273948
-0.190093 0.069268 0.273570
-0.190250 0.074119 0.261139
-0.193942 0.058183 0.249769
-0.203093 0.051140 0.238844
-0.198700 0.057126 0.278749
-0.193264 0.046965 0.265673
-0.199725 0.055453 0.253809
-0.191993 0.041126 0.262222
-0.196671 0.074275 0.255394
-0.198515 0.047579 0.268662
-0.191264 0.057201 0.267816
-0.189795 0.050998 0.272507
-0.207230 0.064211 0.244428
-0.197533 0.074268 0.267655
-0.197981 0.087396 0.271111
-0.188396 0.041238 0.262526
-0.199084 0.080737 0.271160
-0.203617 0.064488 0.256466
-0.197456 0.069128 0.284900
0.140884 -0.173733 0.385089
0.135933 -0.162003 0.420073
0.144113 -0.177469 0.388101
0.128796 -0.179184 0.377148
0.133364 -0.159218 0.376583
0.134215 -0.150409 0.389489
0.132060 -0.182356 0.385565
0.138583 -0.170476 0.355151
0.148196 -0.177255 0.418669
0.139887 -0.175144 0.383555
0.138418 -0.176601 0.417643
0.145446 -0.170758 0.387792
0.129683 -0.178623 0.416773
0.142315 -0.174311 0.409681
0.140195 -0.180254 0.379672
0.146275 -0.181778 0.354738
0.141408 -0.192148 0.377172
0.157535 -0.185312 0.423961
0.163245 -0.184681 0.407660
0.142680 -0.170746 0.356979
0.139767 -0.178158 0.382576
0.138870 -0.171479 0.375200
0.148145 -0.179767 0.412895
0.137517 -0.183038 0.386317
0.150167 -0.183070 0.397034
0.143000 -0.168909 0.365241
0.132092 -0.178319 0.414500
0.146420 -0.161947 0.384515
0.144962 -0.175904 0.358471
0.140908 -0.171875 0.408471
0.163801 -0.185977 0.394807
0.136255 -0.178675 0.426002
0.113387 -0.055329 0.420907
0.103454 -0.052840 0.427072
0.098913 -0.056934 0.433094
0.081076 -0.063019 0.420024
0.095855 -0.045220 0.424331
0.109113 -0.040065 0.430357
0.092937 -0.086889 0.422237
0.112217 -0.051753 0.424769
0.095119 -0.084690 0.415526
0.107392 -0.065256 0.426219
0.083415 -0.059914 0.425542
0.096768 -0.045717 0.429251
0.087760 -0.061520 0.421457
0.093933 -0.060059 0.426754
0.110748 -0.057054 0.418518
0.112915 -0.068124 0.421644
0.123058 -0.082721 0.428995
0.119760 -0.073368 0.425697
0.124050 -0.080522 0.424354
0.094915 -0.073595 0.426924
0.105049 -0.082827 0.428688
0.108013 -0.058510 0.417875
0.092955 -0.084093 0.425077
0.111036 -0.084523 0.412419
0.122228 -0.074291 0.415812
0.083600 -0.059161 0.425682
0.108229 -0.061234 0.431188
0.087328 -0.045903 0.419508
0.084096 -0.083375 0.414948
0.121803 -0.050532 0.410248
0.115963 -0.057295 0.433524
0.112846 -0.055828 0.418064
0.035551 0.039966 0.386514
-0.013255 0.035890 0.406823
0.022477 0.044354 0.394069
-0.027328 0.039225 0.380793
-0.011439 0.039052 0.372417
0.010400 0.041389 0.386113
-0.028108 0.046567 0.398429
0.011783 0.048301 0.357087
0.015528 0.038619 0.412271
0.010501 0.043895 0.377195
-0.011862 0.043854 0.420294
-0.021481 0.047593 0.374940
-0.029679 0.042527 0.420061
0.004004 0.042699 0.399447
-0.017250 0.037192 0.383368
0.007788 0.033852 0.366588
0.048334 0.049557 0.357002
0.029218 0.041550 0.416567
0.037216 0.046501 0.395334
-0.015244 0.039411 0.370732
0.004348 0.039539 0.391101
0.016524 0.036925 0.382560
-0.017868 0.049070 0.390448
0.028234 0.041175 0.388794
0.026164 0.048587 0.394625
-0.024787 0.043871 0.363540
-0.010309 0.036811 0.410764
-0.038111 0.048510 0.409039
-0.018330 0.044156 0.367377
0.028834 0.035079 0.398368
0.041127 0.044363 0.396479
0.020734 0.036559 0.403927
-0.093748 0.133566 0.321782
-0.113868 0.125104 0.353352
-0.081812 0.076157 0.332541
-0.080225 0.091248 0.331290
-0.089408 0.116080 0.316249
-0.097571 0.125970 0.337909
-0.075532 0.070120 0.339829
-0.097551 0.117184 0.288886
-0.076201 0.066651 0.386076
-0.098980 0.063662 0.319582
-0.090312 0.090494 0.387246
-0.083031 0.100453 0.339834
-0.097456 0.092916 0.375854
-0.087622 0.080602 0.362090
-0.091824 0.101269 0.338111
-0.093795 0.075047 0.269624
-0.088434 0.061436 0.292367
-0.095852 0.069474 0.377986
-0.088674 0.049811 0.365310
-0.071364 0.071283 0.299452
-0.076364 0.065926 0.339042
-0.096462 0.088209 0.314884
-0.094799 0.056778 0.372876
-0.088923 0.057870 0.332326
-0.078022 0.073406 0.352819
-0.083773 0.107419 0.292772
-0.102014 0.096567 0.364732
-0.096992 0.111586 0.340617
-0.086821 0.055406 0.302736
-0.097221 0.112003 0.351244
-0.092171 0.081471 0.322508
-0.090074 0.114649 0.389494
-0.075201 0.043603 0.343099
-0.092669 0.062491 0.377515
-0.074865 0.015668 0.347246
-0.076410 0.048654 0.355642
-0.072694 0.042662 0.345607
-0.082816 0.073660 0.355339
-0.074131 0.013619 0.366805
-0.076911 0.069500 0.321730
-0.061266 0.016033 0.388956
-0.083044 0.018530 0.342405
-0.084033 0.027543 0.412365
-0.081672 0.046023 0.354010
-0.080690 0.041419 0.391961
-0.067172 0.028228 0.377887
-0.079199 0.058409 0.358952
-0.063508 0.015374 0.308162
-0.055973 0.027437 0.318602
-0.061225 0.022640 0.390392
-0.054147 0.011577 0.374061
-0.073172 0.034914 0.315026
-0.062361 -0.002939 0.352342
-0.072012 0.027778 0.337097
-0.071086 0.006964 0.389440
-0.076941 0.004135 0.330322
-0.057868 0.025216 0.365943
-0.080170 0.043497 0.325656
-0.080149 0.023622 0.377147
-0.091732 0.054254 0.362472
-0.067435 0.002221 0.337053
-0.068004 0.059094 0.374172
-0.031846 0.034166 0.352297
-0.080223 0.053564 0.397593
-0.168850 0.172307 0.268262
-0.190309 0.176253 0.311297
-0.182363 0.183161 0.298138
-0.190380 0.172400 0.281844
-0.200397 0.182854 0.278079
-0.180838 0.174324 0.284637
-0.201533 0.164665 0.306413
-0.169672 0.176871 0.256300
-0.184394 0.183478 0.308063
-0.199992 0.183050 0.279685
-0.191791 0.184619 0.327170
-0.189843 0.176299 0.280566
-0.200764 0.178414 0.309730
-0.184076 0.185767 0.292837
-0.184588 0.179162 0.283223
-0.187139 0.181616 0.249677
-0.162802 0.171925 0.268694
-0.179913 0.184895 0.303190
-0.172421 0.186018 0.285750
-0.193660 0.187218 0.255997
-0.184453 0.179155 0.286158
-0.176398 0.185275 0.260028
-0.188977 0.173125 0.301250
-0.170671 0.172563 0.274693
-0.168754 0.175964 0.296749
-0.194826 0.187539 0.271182
-0.193387 0.178001 0.304462
-0.201748 0.172682 0.289992
-0.198830 0.178491 0.256101
-0.166363 0.187351 0.289849
-0.156057 0.178994 0.285402
-0.185972 0.186413 0.300230
-0.193677 -0.004562 0.193034
-0.197175 -0.005701 0.224315
-0.195428 -0.032613 0.220879
-0.193782 -0.036014 0.227823
-0.189082 -0.021481 0.204308
-0.198065 0.003177 0.206975
-0.189176 -0.044104 0.225736
-0.193342 -0.014563 0.204609
-0.202378 -0.040912 0.228791
-0.198039 -0.034690 0.210080
-0.198763 -0.022400 0.247060
-0.193901 -0.029449 0.227017
-0.192153 -0.024500 0.229966
-0.196148 -0.032380 0.227227
-0.191311 -0.014631 0.211156
-0.192149 -0.037653 0.191000
-0.197771 -0.033796 0.196145
-0.196678 -0.033818 0.233934
-0.191424 -0.036153 0.230093
-0.198614 -0.026708 0.205273
-0.196934 -0.057221 0.210184
-0.198620 -0.026229 0.209954
-0.188379 -0.033980 0.232718
-0.200389 -0.042669 0.207348
-0.198423 -0.030699 0.219110
-0.198913 -0.024839 0.191232
-0.201683 -0.004974 0.239565
-0.193561 -0.010564 0.215643
-0.205827 -0.047398 0.192930
-0.194276 -0.025113 0.209560
-0.191427 -0.026367 0.213471
-0.195306 -0.021989 0.241713
-0.203233 -0.077637 0.161584
-0.187924 -0.084683 0.185966
-0.194875 -0.119413 0.169537
-0.194065 -0.112312 0.184387
-0.197733 -0.097100 0.150028
-0.199712 -0.080586 0.163313
-0.195397 -0.128933 0.177095
-0.200841 -0.102233 0.154398
-0.193240 -0.122867 0.189264
-0.203061 -0.112524 0.161024
-0.194660 -0.097304 0.189858
-0.200420 -0.095508 0.181921
-0.191032 -0.105452 0.185118
-0.205346 -0.117317 0.181319
-0.196913 -0.091520 0.160289
-0.190172 -0.108369 0.155963
-0.196323 -0.124877 0.157632
-0.193244 -0.105477 0.183494
-0.195220 -0.126547 0.188697
-0.201334 -0.107151 0.158480
-0.195906 -0.133246 0.167597
-0.204311 -0.092719 0.156533
-0.190929 -0.106174 0.193742
-0.190870 -0.114695 0.155685
-0.190039 -0.109615 0.173208
-0.199260 -0.096753 0.153206
-0.194239 -0.088281 0.176683
-0.200797 -0.094094 0.161571
-0.191650 -0.123588 0.160881
-0.188188 -0.101642 0.169412
-0.204137 -0.102742 0.158301
-0.189224 -0.094143 0.200091
0.171796 -0.098527 0.422766
0.163172 -0.094371 0.419344
0.148583 -0.110999 0.422117
0.138099 -0.114771 0.421070
0.155428 -0.098296 0.427073
0.173396 -0.077637 0.425058
0.130281 -0.125237 0.423233
0.170214 -0.097573 0.419588
0.157819 -0.122407 0.420681
0.158705 -0.109988 0.417553
0.150968 -0.112946 0.419480
0.141025 -0.109543 0.416934
0.133420 -0.115042 0.421018
0.157147 -0.113878 0.421308
0.146157 -0.100634 0.421922
0.168815 -0.120206 0.430704
0.181098 -0.122694 0.423566
0.163259 -0.110552 0.423305
0.172785 -0.137564 0.420859
0.136283 -0.121848 0.416963
0.149736 -0.148221 0.426779
0.157214 -0.098625 0.429040
0.140055 -0.116446 0.422950
0.155495 -0.132355 0.419262
0.169382 -0.125886 0.419113
0.138156 -0.119506 0.420258
0.158958 -0.103678 0.427978
0.138657 -0.101932 0.421961
0.154944 -0.134316 0.432033
0.167924 -0.086891 0.423817
0.187382 -0.107234 0.416220
0.156632 -0.100174 0.420182
-0.194419 0.055885 0.244103
-0.200661 0.064941 0.254155
-0.190119 0.034234 0.238220
-0.191895 0.042540 0.237773
-0.206376 0.056611 0.230324
-0.201574 0.052728 0.247984
-0.193982 0.032236 0.242414
-0.196355 0.051460 0.228937
-0.189304 0.025170 0.254372
-0.202000 0.034751 0.224705
-0.199319 0.030259 0.255956
-0.191823 0.035487 0.253804
-0.200946 0.052902 0.246079
-0.187524 0.037888 0.248372
-0.194542 0.043265 0.235844
-0.196605 0.044188 0.212765
-0.199460 0.033319 0.226555
-0.192464 0.036888 0.258013
-0.198299 0.024082 0.239301
-0.190777 0.041393 0.236035
-0.192387 0.017327 0.240949
-0.192040 0.043939 0.233793
-0.194675 0.042108 0.253140
-0.201958 0.029542 0.233518
-0.189379 0.044102 0.245691
-0.192507 0.042845 0.218439
-0.202577 0.062819 0.260140
-0.196569 0.052284 0.243312
-0.195232 0.023036 0.236261
-0.197062 0.059506 0.237647
-0.193048 0.045690 0.231892
-0.202933 0.058288 0.260835
0.146077 -0.092999 0.421029
0.125328 -0.066821 0.415906
0.138946 -0.098074 0.427821
0.109052 -0.091018 0.425596
0.125385 -0.070086 0.415505
0.141400 -0.073800 0.424653
0.119802 -0.118646 0.425516
0.136325 -0.078339 0.422016
0.126436 -0.101823 0.421125
0.129586 -0.103994 0.427788
0.125183 -0.096628 0.418586
0.111933 -0.093331 0.417626
0.116609 -0.083598 0.430034
0.132215 -0.085528 0.426257
0.144543 -0.076180 0.427157
0.141368 -0.110828 0.431475
0.150625 -0.097182 0.417989
0.144332 -0.098513 0.422543
0.146341 -0.128386 0.415770
0.124026 -0.097990 0.431628
0.131069 -0.119736 0.425038
0.135102 -0.087469 0.421636
0.121530 -0.104159 0.430525
0.134713 -0.112912 0.431788
0.150153 -0.118745 0.428567
0.120214 -0.092894 0.412570
0.156840 -0.092187 0.430320
0.117336 -0.070059 0.420997
0.127581 -0.115276 0.423491
0.160277 -0.085175 0.410946
0.166775 -0.094133 0.420804
0.147389 -0.073179 0.428006
0.187910 -0.137873 0.404656
0.185876 -0.133770 0.420666
0.190768 -0.159829 0.411597
0.163021 -0.165163 0.425336
0.185327 -0.146767 0.389882
0.188612 -0.128692 0.426813
0.185935 -0.160904 0.423714
0.182050 -0.135987 0.388054
0.184551 -0.166004 0.421090
0.194588 -0.167337 0.412093
0.184656 -0.151477 0.424764
0.192765 -0.145784 0.427692
0.175292 -0.159922 0.425415
0.190889 -0.163639 0.422430
0.185367 -0.154077 0.423683
0.184523 -0.150922 0.381432
0.190227 -0.148037 0.396836
0.190699 -0.155125 0.418167
0.187835 -0.166101 0.420702
0.185988 -0.163105 0.392856
0.188397 -0.164073 0.410002
0.185123 -0.143238 0.403743
0.180903 -0.166934 0.421491
0.189648 -0.167454 0.397193
0.189229 -0.165853 0.409817
0.191392 -0.158858 0.394207
0.186362 -0.149513 0.422333
0.180118 -0.131305 0.427732
0.188695 -0.161867 0.387602
0.187704 -0.133876 0.421137
0.194503 -0.143175 0.411778
0.177348 -0.138055 0.411941
-0.196345 -0.039532 0.185051
-0.194834 -0.051484 0.205669
-0.199289 -0.080093 0.184429
-0.200313 -0.060702 0.203970
-0.193984 -0.056193 0.180785
-0.191401 -0.038865 0.186406
-0.193757 -0.080987 0.180000
-0.196512 -0.057201 0.179202
-0.196919 -0.088425 0.211496
-0.190532 -0.060055 0.188205
-0.193103 -0.075238 0.208122
-0.202125 -0.063766 0.192864
-0.196664 -0.056516 0.210555
-0.197885 -0.060950 0.205522
-0.198698 -0.049586 0.184105
-0.198002 -0.067409 0.161252
-0.193441 -0.072833 0.179799
-0.192824 -0.078721 0.210642
-0.188319 -0.095623 0.199564
-0.193509 -0.071308 0.174601
-0.201003 -0.086258 0.194945
-0.204461 -0.063879 0.174152
-0.193675 -0.084425 0.209532
-0.192202 -0.072758 0.182499
-0.202101 -0.070839 0.206534
-0.199266 -0.056537 0.170660
-0.191655 -0.051792 0.200576
-0.195949 -0.047263 0.179659
-0.194015 -0.079970 0.177451
-0.194047 -0.058998 0.200465
-0.196374 -0.074147 0.181125
-0.199191 -0.052614 0.214896
0.055582 0.013645 0.331756
0.014581 0.037174 0.383790
0.022822 -0.042475 0.360675
-0.052868 -0.033874 0.354000
-0.006668 0.007971 0.307592
0.028326 0.028490 0.343016
-0.038379 -0.078770 0.348445
0.026667 0.016705 0.284541
0.027201 -0.067056 0.384851
-0.006845 -0.054099 0.323576
-0.007080 -0.026851 0.412736
-0.016166 -0.026885 0.358871
-0.040604 0.000569 0.394969
0.013616 -0.023844 0.381876
0.013336 0.000910 0.352480
0.042005 -0.053780 0.274203
0.068032 -0.042625 0.312918
0.058083 -0.054458 0.394731
0.057462 -0.076842 0.380332
0.008114 -0.020878 0.305977
-0.000561 -0.098394 0.355830
0.025963 -0.023818 0.329443
-0.033223 -0.062063 0.396847
0.023255 -0.080978 0.307714
0.042668 -0.045954 0.329313
-0.040178 -0.032315 0.315462
0.042238 -0.009213 0.379851
-0.032982 0.026629 0.356987
-0.032714 -0.080556 0.306570
0.059789 0.032149 0.361526
0.105888 -0.011982 0.373192
0.036340 0.008976 0.396047
0.135571 -0.015676 0.425165
0.110080 0.002689 0.424554
0.113720 -0.017181 0.416176
0.081214 -0.023569 0.418595
0.102591 0.005833 0.424619
0.129948 0.007093 0.412288
0.088389 -0.023501 0.418713
0.121685 -0.006112 0.412437
0.110735 -0.028654 0.415075
0.108058 -0.026559 0.420949
0.088851 -0.016422 0.421649
0.101736 -0.006307 0.425896
0.088874 -0.013056 0.428798
0.109721 -0.010711 0.422744
0.102525 -0.001955 0.426711
0.111156 -0.027234 0.420580
0.128810 -0.026294 0.420620
0.120341 -0.014738 0.429087
0.119720 -0.023877 0.428015
0.105288 -0.020841 0.434445
0.106112 -0.031525 0.428422
0.107764 -0.012290 0.418385
0.109276 -0.035684 0.418444
0.117344 -0.037128 0.421572
0.122679 -0.033450 0.432130
0.092751 -0.018399 0.421438
0.124144 -0.012064 0.425324
0.087257 0.003442 0.429186
0.096047 -0.040672 0.430318
0.129139 0.000521 0.427027
0.145880 -0.014310 0.435492
0.124871 -0.003186 0.420816
0.111394 0.014903 0.417064
0.087602 0.035508 0.421164
0.087675 0.019726 0.423080
0.045318 0.020179 0.417604
0.061449 0.046331 0.420039
0.083415 0.031849 0.419796
0.046279 0.006717 0.420185
0.090658 0.032493 0.420172
0.086677 0.016973 0.418566
0.080041 0.013918 0.430386
0.075655 0.028397 0.424554
0.057268 0.016500 0.417168
0.054722 0.032114 0.424750
0.069861 0.034150 0.424804
0.064140 0.028793 0.418777
0.088788 0.018315 0.428466
0.113203 0.001632 0.425443
0.097252 0.022228 0.422221
0.094915 0.006114 0.423263
0.067870 0.023449 0.411298
0.076760 -0.003637 0.427386
0.078554 0.025532 0.422592
0.058836 0.018807 0.432736
0.085203 0.009920 0.417200
0.101571 0.010962 0.424109
0.062440 0.029784 0.428188
0.099967 0.019789 0.426448
0.065712 0.040620 0.424818
0.067971 0.001924 0.416066
0.109995 0.032523 0.420324
0.122768 0.030267 0.424091
0.081675 0.042982 0.417263
-0.082775 0.090841 0.280869
-0.102246 0.090249 0.304995
-0.066057 0.039566 0.279457
-0.088614 0.044035 0.293117
-0.092358 0.081682 0.263475
-0.106912 0.099074 0.288462
-0.089319 0.015177 0.276570
-0.083494 0.080270 0.239801
-0.054490 0.019342 0.338078
-0.074543 0.031226 0.257528
-0.077113 0.041993 0.342985
-0.086500 0.066360 0.281260
-0.093117 0.066826 0.318242
-0.085750 0.044729 0.302004
-0.092209 0.070739 0.285005
-0.072511 0.044360 0.225701
-0.067839 0.039062 0.259018
-0.070845 0.031597 0.318931
-0.063036 0.012874 0.299849
-0.067539 0.056830 0.237287
-0.061338 0.003346 0.284246
-0.069049 0.059539 0.280285
-0.073061 0.025189 0.317636
-0.062527 0.019812 0.272484
-0.063664 0.033603 0.290446
-0.088874 0.058755 0.261708
-0.086815 0.064126 0.316400
-0.090403 0.086377 0.281855
-0.061743 0.004419 0.257099
-0.084176 0.091429 0.283126
-0.076965 0.048424 0.281750
-0.080835 0.079767 0.323812
-0.112820 0.159665 0.305110
-0.127548 0.151502 0.341558
-0.087823 0.136116 0.324623
-0.096273 0.151016 0.321393
-0.110940 0.157487 0.298920
-0.119414 0.161977 0.319324
-0.089131 0.125691 0.322277
-0.102388 0.152316 0.255294
-0.108426 0.104500 0.356211
-0.105983 0.123696 0.292112
-0.111053 0.129287 0.365854
-0.098159 0.152607 0.339603
-0.117773 0.145339 0.346085
-0.111715 0.129438 0.343535
-0.112601 0.144443 0.299080
-0.105092 0.126712 0.252487
-0.107527 0.111588 0.270596
-0.117716 0.120808 0.369352
-0.090968 0.105715 0.345489
-0.104769 0.141553 0.280698
-0.089437 0.107448 0.316449
-0.111394 0.146171 0.295634
-0.111261 0.116181 0.348335
-0.089321 0.128388 0.287154
-0.092194 0.135237 0.340254
-0.099066 0.155852 0.283646
-0.120860 0.137140 0.345222
-0.101103 0.164030 0.305032
-0.096902 0.104411 0.279142
-0.107325 0.157284 0.345031
-0.099986 0.144583 0.301121
-0.116679 0.146237 0.371741
-0.197965 -0.151635 0.116562
-0.192725 -0.139045 0.124108
-0.188800 -0.157994 0.119912
-0.188725 -0.163723 0.121290
-0.202891 -0.142654 0.116576
-0.196780 -0.145979 0.122594
-0.204405 -0.163307 0.123068
-0.198593 -0.149565 0.110618
-0.194346 -0.162143 0.149953
-0.201943 -0.155247 0.105353
-0.193230 -0.162552 0.155589
-0.192049 -0.165419 0.118763
-0.200396 -0.157124 0.130914
-0.196783 -0.165458 0.142489
-0.203148 -0.148548 0.111681
-0.192489 -0.162233 0.097841
-0.177870 -0.169952 0.114853
-0.182449 -0.160801 0.132895
-0.178815 -0.166954 0.124135
-0.197330 -0.157120 0.105249
-0.189938 -0.156831 0.112044
-0.188217 -0.161149 0.114819
-0.186213 -0.161744 0.131313
-0.185956 -0.162598 0.120125
-0.190469 -0.173196 0.123967
-0.200625 -0.143845 0.106796
-0.192237 -0.152322 0.141234
-0.200023 -0.147391 0.125502
-0.196156 -0.154102 0.104996
-0.200110 -0.151053 0.120797
-0.178572 -0.163494 0.122886
-0.197981 -0.156968 0.148934
-0.197774 0.154261 0.247335
-0.196080 0.145046 0.271257
-0.202943 0.113473 0.268012
-0.202079 0.124761 0.263377
-0.192171 0.131379 0.260508
-0.200930 0.153690 0.271020
-0.199453 0.115927 0.263041
-0.198299 0.143393 0.249750
-0.195163 0.118158 0.297440
-0.192663 0.120198 0.256156
-0.190077 0.128989 0.295382
-0.208376 0.135903 0.265902
-0.199911 0.129307 0.288483
-0.199681 0.131952 0.269789
-0.198708 0.128547 0.263088
-0.193640 0.119611 0.235513
-0.195249 0.121846 0.254793
-0.198988 0.121559 0.290446
-0.191677 0.102885 0.261696
-0.188895 0.122765 0.244706
-0.190493 0.109678 0.266008
-0.194298 0.134934 0.257529
-0.204012 0.102463 0.268182
-0.194086 0.100891 0.254842
-0.196928 0.109332 0.263969
-0.205390 0.136977 0.238441
-0.198627 0.128362 0.269907
-0.194656 0.125981 0.268540
-0.194655 0.110619 0.257957
-0.197518 0.146928 0.260996
-0.187815 0.112141 0.259679
-0.199033 0.129665 0.287152
-0.190208 0.035851 0.204785
-0.195624 0.034440 0.218068
-0.187626 -0.000854 0.214945
-0.200591 0.021956 0.211515
-0.202745 0.023958 0.191678
-0.201527 0.040374 0.212383
-0.201430 0.012885 0.214832
-0.189471 0.034711 0.181159
-0.190383 0.008722 0.221597
-0.189154 0.005973 0.195693
-0.200063 0.016221 0.243695
-0.197252 0.027691 0.214482
-0.199583 0.016558 0.225251
-0.188546 0.021872 0.219540
-0.200038 0.031523 0.205547
-0.195492 0.016938 0.197307
-0.185772 0.003624 0.201163
-0.185923 0.013953 0.230679
-0.189619 0.002014 0.212486
-0.193428 0.019775 0.194740
-0.195069 -0.011054 0.215990
-0.190895 0.016602 0.195092
-0.188758 0.016910 0.219528
-0.191673 0.000603 0.215340
-0.189980 0.013191 0.215334
-0.198010 0.023250 0.192270
-0.199433 0.033649 0.214520
-0.198641 0.036240 0.203220
-0.192076 0.006877 0.198139
-0.195036 0.030843 0.224303
-0.197751 0.009925 0.198678
-0.201199 0.030887 0.231202
-0.191113 -0.109868 0.133186
-0.198837 -0.098645 0.154152
-0.190548 -0.132466 0.130475
-0.189994 -0.120113 0.148343
-0.199099 -0.107261 0.129902
-0.192053 -0.107978 0.139698
-0.187703 -0.129289 0.150489
-0.191750 -0.106288 0.123206
-0.194006 -0.134999 0.165699
-0.199660 -0.132861 0.117461
-0.190735 -0.120386 0.165392
-0.189339 -0.113563 0.151511
-0.205121 -0.126896 0.160808
-0.191062 -0.118238 0.153886
-0.198868 -0.119665 0.138146
-0.205327 -0.121836 0.110221
-0.196500 -0.128333 0.122853
-0.196035 -0.133396 0.166225
-0.192213 -0.139346 0.143669
-0.204044 -0.116794 0.114171
-0.194297 -0.143320 0.142829
-0.202845 -0.119379 0.125584
-0.191381 -0.140947 0.155579
-0.199370 -0.133073 0.137720
-0.199216 -0.129158 0.137093
-0.194151 -0.119952 0.121648
-0.192004 -0.106217 0.157370
-0.200599 -0.110877 0.137370
-0.195740 -0.132177 0.119103
-0.189525 -0.110780 0.146606
-0.198178 -0.123727 0.140508
-0.205063 -0.112896 0.155371
0.119329 0.003870 0.423108
0.082132 0.039565 0.423864
0.086836 0.015849 0.418866
0.055895 -0.001407 0.421691
0.079980 0.017649 0.424885
0.110468 0.020585 0.419390
0.061920 -0.011323 0.419526
0.104322 0.019875 0.413758
0.093996 -0.011553 0.423486
0.097810 0.003107 0.423613
0.070391 -0.001010 0.423637
0.084939 0.020988 0.412099
0.059357 0.019845 0.429364
0.086220 0.005995 0.418710
0.084773 0.022894 0.421557
0.097545 -0.002467 0.428299
0.122837 0.011078 0.435510
0.113210 0.000370 0.423682
0.118009 -0.018584 0.423189
0.078831 -0.000534 0.421842
0.097375 -0.014461 0.427787
0.094290 0.022960 0.415503
0.084274 -0.013181 0.421301
0.090889 -0.024476 0.424231
0.103909 -0.001637 0.429185
0.060078 0.001731 0.425355
0.105207 0.009758 0.414620
0.061152 0.018290 0.421653
0.068802 -0.012685 0.421157
0.111261 0.029983 0.422291
0.128759 0.010787 0.418918
0.103768 0.018495 0.419298
0.166322 -0.068343 0.420957
0.128340 -0.034999 0.422712
0.140446 -0.069866 0.413935
0.112278 -0.078582 0.428261
0.118772 -0.044525 0.423374
0.148637 -0.038188 0.431766
0.112186 -0.092050 0.423525
0.151482 -0.049157 0.420095
0.144807 -0.083798 0.419311
0.147893 -0.090472 0.430234
0.117731 -0.068773 0.415186
0.129114 -0.048360 0.430762
0.099216 -0.064361 0.420004
0.134329 -0.060238 0.425927
0.130729 -0.046738 0.419907
0.153487 -0.080256 0.424448
0.161609 -0.075048 0.417714
0.153706 -0.076464 0.418204
0.160590 -0.095709 0.427649
0.118734 -0.073058 0.418249
0.130457 -0.106077 0.424766
0.145247 -0.061006 0.420049
0.134072 -0.088428 0.426676
0.147404 -0.095614 0.425204
0.156129 -0.095406 0.417295
0.109212 -0.067346 0.428857
0.149845 -0.062430 0.418923
0.108092 -0.054064 0.421281
0.120968 -0.103018 0.428155
0.168667 -0.046153 0.415585
0.172100 -0.070938 0.419131
0.149126 -0.057987 0.427845
-0.195049 0.097417 0.235215
-0.194649 0.113836 0.258073
